0.079596799999999995 0.010880600000000001 -0.057829800000000001
-0.01787 0.055258500000000002 -0.0549995
2.7148100000000001e-08 0.071686600000000003 -2.0489100000000001e-09
-0.01787 0.055258500000000002 0.0549995
0.104616 -0.038313399999999997 -0.033991399999999998
0.0289156 0.019517699999999999 -0.088991299999999995
0.064656500000000006 -0.038313399999999997 -0.088991899999999999
-0.030402700000000001 0.0108807 -0.093571399999999999
0.079596799999999995 0.010880600000000001 0.057829800000000001
0.104616 -0.038313399999999997 0.033991399999999998
0.075700900000000002 -0.096144800000000002 -0.054999699999999999
0.057830300000000001 -0.131885 -2.0489100000000001e-09
0.017870199999999999 -0.131885 0.0549995
0.030402700000000001 -0.087507600000000005 0.093571500000000002
-0.046785399999999998 -0.131885 0.033991199999999999
-0.079596799999999995 -0.087507600000000005 0.057829800000000001
-0.046785399999999998 -0.131885 -0.033991300000000002
0.030402700000000001 -0.087507600000000005 -0.093571399999999999
0.017870199999999999 -0.131885 -0.0549995
2.7148100000000001e-08 -0.148313 -2.0489100000000001e-09
0.075700900000000002 -0.096144800000000002 0.054999699999999999
0.064656500000000006 -0.038313399999999997 0.088992199999999994
-0.0289156 -0.096144800000000002 0.088991100000000004
-0.093571299999999996 -0.096144800000000002 -2.0489100000000001e-09
-0.0646563 -0.038313399999999997 -0.088991899999999999
-0.0289156 -0.096144800000000002 -0.088991299999999995
0.0289156 0.019517699999999999 0.088991100000000004
2.7148100000000001e-08 -0.038313399999999997 0.11
-0.0646563 -0.038313399999999997 0.088992199999999994
-0.104616 -0.038313399999999997 0.033991399999999998
-0.104616 -0.038313399999999997 -0.033991399999999998
-0.079596799999999995 -0.087507600000000005 -0.057829800000000001
2.7148100000000001e-08 -0.038313399999999997 -0.11
0.098386899999999999 -0.087507199999999993 -2.0489100000000001e-09
-0.075700799999999999 0.0195175 0.054999699999999999
-0.030402700000000001 0.0108807 0.093571500000000002
-0.057830300000000001 0.0552582 -2.0489100000000001e-09
-0.098386899999999999 0.0108802 -2.0489100000000001e-09
-0.075700799999999999 0.0195175 -0.054999699999999999
0.093571299999999996 0.0195175 -2.0489100000000001e-09
0.046785500000000001 0.055258500000000002 0.033991199999999999
0.046785500000000001 0.055258500000000002 -0.033991300000000002
