-0.081000000000000003 -0.080935000000000007 0.080935000000000007
-0.081000000000000003 0.080935000000000007 0.080935000000000007
-0.081000000000000003 -0.080935000000000007 -0.080935000000000007
-0.081000000000000003 0.080935000000000007 -0.080935000000000007
0.081000000000000003 -0.080935000000000007 0.080935000000000007
0.081000000000000003 0.080935000000000007 0.080935000000000007
0.081000000000000003 -0.080935000000000007 -0.080935000000000007
0.081000000000000003 0.080935000000000007 -0.080935000000000007
-0.081000000000000003 -0.080935000000000007 0
0.081000000000000003 -0.080935000000000007 0
0.081000000000000003 0.080935000000000007 0
-0.081000000000000003 -0.080935000000000007 0.040467999999999997
0.081000000000000003 0.080935000000000007 0.040467999999999997
-0.081000000000000003 0.080935000000000007 0.040467999999999997
0.081000000000000003 -0.080935000000000007 0.040467999999999997
0.081000000000000003 -0.080935000000000007 -0.040467999999999997
-0.081000000000000003 -0.080935000000000007 -0.040467999999999997
0.081000000000000003 0.080935000000000007 -0.040467999999999997
0 -0.080935000000000007 -0.080935000000000007
0 0.080935000000000007 -0.080935000000000007
0 -0.080935000000000007 0.080935000000000007
0 0.080935000000000007 0.080935000000000007
0 0.080935000000000007 0
0 -0.080935000000000007 0
0 0.080935000000000007 0.040467999999999997
0 -0.080935000000000007 0.040467999999999997
0 -0.080935000000000007 -0.040467999999999997
0 0.080935000000000007 -0.040467999999999997
-0.040500000000000001 -0.080935000000000007 -0.080935000000000007
-0.040500000000000001 0.080935000000000007 0.080935000000000007
-0.040500000000000001 -0.080935000000000007 0
-0.040500000000000001 -0.080935000000000007 0.040467999999999997
-0.040500000000000001 -0.080935000000000007 -0.040467999999999997
-0.040500000000000001 0.080935000000000007 -0.080935000000000007
-0.040500000000000001 -0.080935000000000007 0.080935000000000007
-0.040500000000000001 0.080935000000000007 0
-0.040500000000000001 0.080935000000000007 0.040467999999999997
-0.040500000000000001 0.080935000000000007 -0.040467999999999997
0.040500000000000001 0.080935000000000007 -0.080935000000000007
0.040500000000000001 -0.080935000000000007 0.080935000000000007
0.040500000000000001 0.080935000000000007 0
0.040500000000000001 0.080935000000000007 0.040467999999999997
0.040500000000000001 0.080935000000000007 -0.040467999999999997
0.040500000000000001 -0.080935000000000007 -0.080935000000000007
0.040500000000000001 0.080935000000000007 0.080935000000000007
0.040500000000000001 -0.080935000000000007 0
0.040500000000000001 -0.080935000000000007 0.040467999999999997
0.040500000000000001 -0.080935000000000007 -0.040467999999999997
-0.081000000000000003 0 0.080935000000000007
-0.081000000000000003 0 -0.080935000000000007
0.081000000000000003 0 -0.080935000000000007
0.081000000000000003 0 0.080935000000000007
0.081000000000000003 0 0
-0.081000000000000003 0 0
-0.081000000000000003 0 0.040467999999999997
0.081000000000000003 0 0.040467999999999997
0.081000000000000003 0 -0.040467999999999997
-0.081000000000000003 0 -0.040467999999999997
0 0 0.080935000000000007
0 0 -0.080935000000000007
-0.040500000000000001 0 -0.080935000000000007
-0.040500000000000001 0 0.080935000000000007
0.040500000000000001 0 0.080935000000000007
0.040500000000000001 0 -0.080935000000000007
-0.081000000000000003 0.040467999999999997 0.080935000000000007
-0.081000000000000003 0.040467999999999997 -0.080935000000000007
0.081000000000000003 0.040467999999999997 -0.080935000000000007
0.081000000000000003 0.040467999999999997 0.080935000000000007
0.081000000000000003 0.040467999999999997 0
-0.081000000000000003 0.040467999999999997 0
-0.081000000000000003 0.040467999999999997 0.040467999999999997
0.081000000000000003 0.040467999999999997 0.040467999999999997
0.081000000000000003 0.040467999999999997 -0.040467999999999997
-0.081000000000000003 0.040467999999999997 -0.040467999999999997
0 0.040467999999999997 0.080935000000000007
0 0.040467999999999997 -0.080935000000000007
-0.040500000000000001 0.040467999999999997 -0.080935000000000007
-0.040500000000000001 0.040467999999999997 0.080935000000000007
0.040500000000000001 0.040467999999999997 0.080935000000000007
0.040500000000000001 0.040467999999999997 -0.080935000000000007
-0.081000000000000003 -0.040467999999999997 -0.080935000000000007
0.081000000000000003 -0.040467999999999997 -0.080935000000000007
0.081000000000000003 -0.040467999999999997 0.080935000000000007
0.081000000000000003 -0.040467999999999997 0
-0.081000000000000003 -0.040467999999999997 0
-0.081000000000000003 -0.040467999999999997 0.040467999999999997
0.081000000000000003 -0.040467999999999997 0.040467999999999997
0.081000000000000003 -0.040467999999999997 -0.040467999999999997
-0.081000000000000003 -0.040467999999999997 -0.040467999999999997
0 -0.040467999999999997 0.080935000000000007
0 -0.040467999999999997 -0.080935000000000007
-0.040500000000000001 -0.040467999999999997 -0.080935000000000007
-0.040500000000000001 -0.040467999999999997 0.080935000000000007
0.040500000000000001 -0.040467999999999997 0.080935000000000007
0.040500000000000001 -0.040467999999999997 -0.080935000000000007
-0.081000000000000003 -0.040467999999999997 0.080935000000000007
-0.072582999999999995 -0.080935000000000007 -0.080935000000000007
-0.072582999999999995 0.080935000000000007 0.080935000000000007
-0.072582999999999995 -0.080935000000000007 0
-0.072582999999999995 -0.080935000000000007 0.040467999999999997
-0.072582999999999995 -0.080935000000000007 -0.040467999999999997
-0.072582999999999995 0.080935000000000007 -0.080935000000000007
-0.072582999999999995 -0.080935000000000007 0.080935000000000007
-0.072582999999999995 0.080935000000000007 0
-0.072582999999999995 0.080935000000000007 0.040467999999999997
-0.072582999999999995 0.080935000000000007 -0.040467999999999997
-0.072582999999999995 0 -0.080935000000000007
-0.072582999999999995 0 0.080935000000000007
-0.072582999999999995 0.040467999999999997 -0.080935000000000007
-0.072582999999999995 0.040467999999999997 0.080935000000000007
-0.072582999999999995 -0.040467999999999997 0.080935000000000007
-0.072582999999999995 -0.040467999999999997 -0.080935000000000007
0.072566000000000005 0.080935000000000007 -0.080935000000000007
0.072566000000000005 -0.080935000000000007 0.080935000000000007
0.072566000000000005 0.080935000000000007 0
0.072566000000000005 0.080935000000000007 0.040467999999999997
0.072566000000000005 0.080935000000000007 -0.040467999999999997
0.072566000000000005 -0.080935000000000007 -0.080935000000000007
0.072566000000000005 0.080935000000000007 0.080935000000000007
0.072566000000000005 -0.080935000000000007 0
0.072566000000000005 -0.080935000000000007 0.040467999999999997
0.072566000000000005 -0.080935000000000007 -0.040467999999999997
0.072566000000000005 0 0.080935000000000007
0.072566000000000005 0 -0.080935000000000007
0.072566000000000005 0.040467999999999997 0.080935000000000007
0.072566000000000005 0.040467999999999997 -0.080935000000000007
0.072566000000000005 -0.040467999999999997 -0.080935000000000007
0.072566000000000005 -0.040467999999999997 0.080935000000000007
0.081000000000000003 -0.080935000000000007 -0.072011000000000006
-0.081000000000000003 -0.080935000000000007 -0.072011000000000006
0.081000000000000003 0.080935000000000007 -0.072011000000000006
0 0.080935000000000007 -0.072011000000000006
0 -0.080935000000000007 -0.072011000000000006
-0.040500000000000001 -0.080935000000000007 -0.072011000000000006
-0.040500000000000001 0.080935000000000007 -0.072011000000000006
0.040500000000000001 0.080935000000000007 -0.072011000000000006
0.040500000000000001 -0.080935000000000007 -0.072011000000000006
0.081000000000000003 0 -0.072011000000000006
-0.081000000000000003 0 -0.072011000000000006
0.081000000000000003 0.040467999999999997 -0.072011000000000006
-0.081000000000000003 0.040467999999999997 -0.072011000000000006
-0.081000000000000003 -0.040467999999999997 -0.072011000000000006
0.081000000000000003 -0.040467999999999997 -0.072011000000000006
-0.072582999999999995 -0.080935000000000007 -0.072011000000000006
-0.072582999999999995 0.080935000000000007 -0.072011000000000006
0.072566000000000005 0.080935000000000007 -0.072011000000000006
0.072566000000000005 -0.080935000000000007 -0.072011000000000006
-0.081000000000000003 -0.080935000000000007 0.071942999999999993
0.081000000000000003 0.080935000000000007 0.071942999999999993
0.081000000000000003 -0.080935000000000007 0.071942999999999993
0 0.080935000000000007 0.071942999999999993
0 -0.080935000000000007 0.071942999999999993
-0.040500000000000001 -0.080935000000000007 0.071942999999999993
-0.040500000000000001 0.080935000000000007 0.071942999999999993
0.040500000000000001 0.080935000000000007 0.071942999999999993
0.040500000000000001 -0.080935000000000007 0.071942999999999993
-0.081000000000000003 0 0.071942999999999993
0.081000000000000003 0 0.071942999999999993
-0.081000000000000003 0.040467999999999997 0.071942999999999993
0.081000000000000003 0.040467999999999997 0.071942999999999993
0.081000000000000003 -0.040467999999999997 0.071942999999999993
-0.081000000000000003 -0.040467999999999997 0.071942999999999993
-0.072582999999999995 -0.080935000000000007 0.071942999999999993
-0.072582999999999995 0.080935000000000007 0.071942999999999993
0.072566000000000005 0.080935000000000007 0.071942999999999993
0.072566000000000005 -0.080935000000000007 0.071942999999999993
-0.081000000000000003 0.072391999999999998 0.080935000000000007
-0.081000000000000003 0.072391999999999998 -0.080935000000000007
0.081000000000000003 0.072391999999999998 -0.080935000000000007
0.081000000000000003 0.072391999999999998 0.080935000000000007
0.081000000000000003 0.072391999999999998 0
-0.081000000000000003 0.072391999999999998 0
-0.081000000000000003 0.072391999999999998 0.040467999999999997
0.081000000000000003 0.072391999999999998 0.040467999999999997
0.081000000000000003 0.072391999999999998 -0.040467999999999997
-0.081000000000000003 0.072391999999999998 -0.040467999999999997
0 0.072391999999999998 0.080935000000000007
0 0.072391999999999998 -0.080935000000000007
-0.040500000000000001 0.072391999999999998 -0.080935000000000007
-0.040500000000000001 0.072391999999999998 0.080935000000000007
0.040500000000000001 0.072391999999999998 0.080935000000000007
0.040500000000000001 0.072391999999999998 -0.080935000000000007
-0.072582999999999995 0.072391999999999998 -0.080935000000000007
-0.072582999999999995 0.072391999999999998 0.080935000000000007
0.072566000000000005 0.072391999999999998 0.080935000000000007
0.072566000000000005 0.072391999999999998 -0.080935000000000007
0.081000000000000003 0.072391999999999998 -0.072011000000000006
-0.081000000000000003 0.072391999999999998 -0.072011000000000006
-0.081000000000000003 0.072391999999999998 0.071942999999999993
0.081000000000000003 0.072391999999999998 0.071942999999999993
-0.081000000000000003 0.080935000000000007 0
-0.081000000000000003 0.080935000000000007 -0.040467999999999997
-0.081000000000000003 0.080935000000000007 -0.072011000000000006
-0.081000000000000003 0.080935000000000007 0.071942999999999993
-0.056541499999999995 -0.020233999999999999 -0.080935000000000007
-0.081000000000000003 -0.060701500000000005 0.056205499999999992
-0.081000000000000003 0.020233999999999999 0.080935000000000007
0.081000000000000003 0.080935000000000007 0.020233999999999999
-0.081000000000000003 -0.060701500000000005 -0.056239499999999998
-0.055695496839506177 0.020233999999999999 0.080935000000000007
-0.056541500000000001 -0.060701500000000005 -0.080935000000000007
-0.056541499999999995 0.080935000000000007 -0.020233999999999999
0.081000000000000003 -0.060701500000000005 0.056205499999999992
-0.081000000000000003 0.056429999999999994 -0.080935000000000007
0.081000000000000003 0.080935000000000007 -0.056239499999999998
0.020250000000000001 0.080935000000000007 0.080935000000000007
-0.081000000000000003 0.080935000000000007 -0.020233999999999999
-0.081000000000000003 -0.020233999999999999 0.080935000000000007
0.020250000000000001 -0.080935000000000007 0.080935000000000007
0.056533 0.056671869425260479 -0.057334889287315123
-0.081000000000000003 0.080935000000000007 0.020233999999999999
0.081000000000000003 -0.020233999999999999 0.080935000000000007
0.081000000000000003 -0.020233999999999995 -0.056239499999999998
-0.034626166663519274 0.020233999999999999 0.034556363218734551
-0.056541499999999995 0.036692158468479646 0.057483901023131681
-0.056541499999999995 0.056429999999999994 -0.057373465038099515
-0.081000000000000003 0.020233999999999999 -0.080935000000000007
-0.056541499999999995 0.080935000000000007 -0.080935000000000007
-0.056541499999999995 -0.045458814446414857 0.057483901023131681
-0.081000000000000003 -0.060701500000000005 0.080935000000000007
0.020250000000000001 -0.080935000000000007 -0.080935000000000007
0.056533000000000007 -0.045429037347739641 0.057445616992882594
-0.020250000000000001 0.080935000000000007 0.056205499999999992
-0.081000000000000003 0.080935000000000007 -0.056239499999999998
-0.081000000000000003 -0.019108777799743026 0.056205499999999992
-0.055695746638888884 -0.060701500000000005 0.080935000000000007
-0.055695496839506177 0.020233999999999999 -0.080935000000000007
-0.081000000000000003 0.056429999999999994 0.080935000000000007
0.081000000000000003 -0.080935000000000007 0.020233999999999999
-0.081000000000000003 0.055642874996911069 0.020233999999999999
-0.081000000000000003 0.080935000000000007 0.056205499999999992
-0.056541499999999995 0.080935000000000007 0.080935000000000007
0.020250000000000001 -0.05563487163614797 0.080935000000000007
-0.020250000000000001 -0.080935000000000007 0.080935000000000007
-0.081000000000000003 -0.080935000000000007 -0.020233999999999999
-0.081000000000000003 -0.080935000000000007 0.020233999999999999
0.081000000000000003 -0.055642874996911069 0.020233999999999999
0.081000000000000003 0.020233999999999999 -0.056239500000000005
0.056533 -0.060701500000000005 -0.080935000000000007
0.081000000000000003 -0.060701500000000005 -0.080935000000000007
0.056533 0.080935000000000007 0.080935000000000007
0.081000000000000003 -0.020233999999999999 -0.080935000000000007
0.056533 0.056429999999999994 0.0574456169928826
0.081000000000000003 0.056429999999999994 -0.020233999999999999
-0.081000000000000003 -0.060701500000000005 -0.080935000000000007
0.081000000000000003 0.056429999999999994 0.080935000000000007
0.081000000000000003 0.020233999999999999 0.080935000000000007
0.056533000000000007 0.056671869425260479 -0.004011830372937026
-0.020250000000000001 0.080935000000000007 -0.080935000000000007
0.055695496839506177 0.020233999999999999 0.080935000000000007
0.081000000000000003 0.080935000000000007 -0.020233999999999999
0.081000000000000003 -0.080935000000000007 -0.020233999999999999
-0.020250000000000001 -0.080935000000000007 -0.080935000000000007
0.030375000000000006 -0.060701500000000005 -0.080935000000000007
0.056533 0.080935000000000007 -0.080935000000000007
0.081000000000000003 0.056429999999999994 -0.080935000000000007
0.020250000000000001 0.080935000000000007 -0.080935000000000007
-0.081000000000000003 0.055642874996911069 -0.020233999999999999
-0.056541499999999995 0.080935000000000007 0.056205499999999992
0.056533000000000007 0.0037822249318927754 0.057445616992882614
-0.020250000000000001 0.080935000000000007 0.080935000000000007
-0.056541499999999995 -0.0041267462682815469 0.057483901023131681
-0.020250000000000001 -0.05563487163614797 0.080935000000000007
0.081000000000000003 -0.059508749999999999 -0.056239499999999998
-0.056541500000000001 -0.036709844574725703 -0.057373465038099508
-0.056541500000000001 -0.0037581554252742906 -0.057373465038099508
-0.081000000000000003 -0.020233999999999999 -0.080935000000000007
-0.081000000000000003 -0.060701500000000005 0.030351
0.056533 -0.060701500000000005 0.080935000000000007
-0.030375000000000006 -0.060701500000000005 -0.080935000000000007
-0.020250000000000001 0.05563487163614797 -0.080935000000000007
-0.081000000000000003 -0.060701500000000005 -0.030351
-0.056541500000000001 0.056712165574154288 -0.0037581554252742941
0.081000000000000003 -0.060701500000000005 0.080935000000000007
-0.004794902962338277 0.056430000000000008 0.05721582489991104
0.056533000000000007 -0.044232485463464061 -0.05733488928731513
0.020250000000000001 0.05563487163614797 -0.080935000000000007
-0.081000000000000003 -0.060701500000000005 -0.0084311666625481868
0.056533000000000007 -0.0048242168636893398 -0.057334889287315109
0.0084484955185185201 -0.060701500000000005 -0.080935000000000007
-0.060564197289447556 0.060675532434189404 -0.033520653185545465
-0.03561750944740269 0.056548625417611895 0.057328526962039425
0.081000000000000003 -0.060701500000000005 -0.030351
0.056533 0.080935000000000007 -0.021910330829297223
-0.037969569280319679 -0.058191300624468062 0.080935000000000007
0.081000000000000003 -0.080935000000000007 -0.056239499999999998
0.0038496119781481972 0.056430000000000001 -0.05710334620125504
-0.00065033828956517585 -0.060701500000000005 0.080935000000000007
0.081000000000000003 0.020233999999999999 -0.080935000000000007
-0.056645076250848865 0.056814214187451133 0.036313621709062806
0.081000000000000003 -0.058488267318908146 0.038175300108204732
0.081000000000000003 0.056429999999999994 0.021808211105070658
0.021390326814814807 0.080935000000000007 0.056205499999999992
0.038322475493169611 -0.058662482222206318 0.080935000000000007
0.081000000000000003 -0.060701500000000005 -0.0084311666625481868
-0.081000000000000003 -0.056908281256950105 0.010959916668725906
-0.010963252240740743 -0.056926288818667063 -0.080935000000000007
0.056533 0.080935000000000007 0.021910330829297223
-0.016781084673301153 -0.041170310018198555 -0.041170310018198562
0.081000000000000003 -0.054532815961967393 0.0052591662305289917
-0.041004000223207791 -0.040939397769538532 0.017103359847278784
0.043455872188908701 -0.043393269186023237 0.01361348222574478
