-0.0067959800000000001 0.044066500000000002 0.119224
-0.013019599999999999 0.033165800000000002 0.117378
-4.6299500000000002e-07 0.044321199999999998 0.119544
0.00024416800000000001 0.037245 0.119224
0.0099046800000000008 0.0352127 0.118325
-0.039422600000000002 0.044579599999999997 0.105833
-0.044138400000000001 0.039852100000000001 0.102009
-0.053428000000000003 0.038842300000000003 0.093680600000000003
-0.049200599999999997 0.044321199999999998 0.097887299999999997
-0.0454554 0.024715299999999999 0.097887299999999997
-0.041001799999999998 0.026648000000000002 0.102002
-0.048250700000000001 0.034327000000000003 0.097887299999999997
-0.032029799999999997 0.030623000000000001 0.109195
-0.033030900000000002 0.021491799999999998 0.105753
-0.027331399999999999 0.021663999999999999 0.109071
-0.024580899999999999 -0.0036120499999999999 0.095526399999999997
-0.029545200000000001 0.0071487199999999999 0.100663
-0.0164412 0.010062700000000001 0.10782899999999999
-0.0100663 -0.0083103499999999993 0.095899899999999996
0.00014617100000000001 -0.0042512299999999999 0.100163
0.0093114300000000007 -0.00352448 0.099949899999999994
0.024358100000000001 -0.00682185 0.092917899999999998
0.038074799999999999 0.016429300000000001 0.100299
0.047693800000000001 0.010134499999999999 0.089400099999999996
0.036423400000000002 0.028564300000000001 0.105833
0.032594699999999997 0.0214501 0.10587299999999999
0.042489399999999997 0.030884100000000001 0.101988
0.045454500000000002 0.024715299999999999 0.097887299999999997
0.051374299999999998 0.028093 0.093680600000000003
0.039101999999999998 0.0225325 0.102009
0.048960200000000002 0.039300099999999998 0.097887299999999997
0.044184399999999999 0.039736100000000003 0.101988
0.038858400000000001 0.0361427 0.105753
-0.068766300000000002 0.022598699999999999 0.068545099999999998
-0.065623500000000001 0.030728999999999999 0.077257000000000006
-0.045254200000000001 -0.011566 0.072095000000000006
-0.044632699999999997 -0.016998300000000001 0.064536800000000005
-0.017579000000000001 -0.027905300000000001 0.069257399999999997
-0.0037697999999999998 -0.0307037 0.068627199999999999
0.0090029800000000007 -0.026316800000000001 0.0749026
0.0099852199999999995 -0.033123199999999998 0.061873299999999999
0.024136399999999999 -0.022168199999999999 0.075499700000000003
0.035913199999999999 -0.0196297 0.070231100000000005
0.0538171 -0.011718900000000001 0.059045899999999998
0.055781299999999999 7.5553499999999994e-05 0.072372300000000001
0.066488800000000001 0.0233184 0.072980500000000004
0.068142900000000006 0.030207000000000001 0.072980500000000004
0.072637599999999997 0.029276 0.063912800000000006
0.070873699999999998 0.021933299999999999 0.063912800000000006
0.074067800000000003 0.044321199999999998 0.063912800000000006
0.069485199999999997 0.044321199999999998 0.072980500000000004
0.066587999999999994 0.037492499999999998 0.077257000000000006
0.073706599999999997 0.036762799999999998 0.063912800000000006
-0.084770399999999996 0.044321199999999998 0.0248606
-0.084357000000000001 0.035670399999999998 0.0248606
-0.085097800000000001 0.035594300000000002 0.018623000000000001
-0.083863300000000002 0.026950700000000001 0.018623000000000001
-0.080229300000000003 0.014664 0.0232406
-0.083132999999999999 0.0271022 0.0248606
-0.062413900000000001 -0.016760899999999999 0.0185501
-0.047962400000000002 -0.030395999999999999 0.0100053
-0.040057200000000001 -0.033212800000000001 0.027222900000000001
-0.029158799999999999 -0.036622200000000001 0.0356222
-0.0290954 -0.039151100000000001 0.021912399999999999
-0.016653500000000002 -0.041895599999999998 0.027937199999999999
0.00850214 -0.042927300000000002 0.029685400000000001
0.016126100000000001 -0.043919 0.0104435
0.021683600000000001 -0.041104700000000001 0.026257699999999998
0.038960300000000003 -0.031581199999999997 0.037058000000000001
0.032151300000000001 -0.037111100000000001 0.027231999999999999
0.044629599999999998 -0.030786600000000001 0.0256575
0.065212900000000004 -0.0117152 0.027224600000000002
0.073378799999999994 1.7927999999999998e-05 0.025656200000000001
0.085096900000000003 0.035594300000000002 0.018623000000000001
0.082252699999999998 0.0358862 0.037058000000000001
0.084769600000000001 0.044321199999999998 0.0248606
0.081060099999999996 0.027531799999999999 0.037058000000000001
0.084356 0.035670399999999998 0.0248606
0.084037700000000007 0.0269316 0.018726900000000001
-0.086047600000000002 0.044321199999999998 -0.012373800000000001
-0.085514800000000002 0.044321199999999998 -0.018623000000000001
-0.085097800000000001 0.035594300000000002 -0.018623000000000001
-0.085627999999999996 0.035539899999999999 -0.012373800000000001
-0.084357000000000001 0.035670399999999998 -0.0248606
-0.083817299999999997 0.044321199999999998 -0.031026499999999999
-0.084770399999999996 0.044321199999999998 -0.0248606
-0.084333099999999994 0.026464999999999999 -0.015774900000000001
-0.068171499999999996 -0.0091451999999999992 -0.021786099999999999
-0.078881800000000002 0.0137188 -0.030298700000000001
-0.074697799999999995 0.0034405899999999999 -0.0282834
-0.057054199999999999 -0.021676000000000001 -0.021921300000000001
-0.047436199999999998 -0.028598700000000001 -0.026815200000000001
-0.038961099999999999 -0.031581199999999997 -0.037058000000000001
-0.036784699999999997 -0.035279999999999999 -0.025968100000000001
-0.024835300000000001 -0.0403665 -0.023162800000000001
0.012228299999999999 -0.043467699999999998 -0.022660599999999999
-0.00072046700000000003 -0.0431618 -0.030059700000000002
0.050240199999999999 -0.028742799999999999 -0.0140968
0.056285000000000002 -0.021372100000000002 -0.027791199999999999
0.064683699999999997 -0.0110876 -0.0321848
0.077606400000000006 0.010872100000000001 -0.030689299999999999
0.072499400000000006 -0.00129885 -0.026816699999999999
0.082252699999999998 0.0358862 -0.037058000000000001
0.084356 0.035670399999999998 -0.0248606
0.085626999999999995 0.035539899999999999 -0.012373800000000001
0.085096900000000003 0.035594300000000002 -0.018623000000000001
0.085513800000000001 0.044321199999999998 -0.018623000000000001
-0.073707400000000006 0.036762799999999998 -0.063912800000000006
-0.066588999999999995 0.037492499999999998 -0.077257000000000006
-0.067622799999999997 0.026919700000000001 -0.073062100000000005
-0.063367199999999999 0.0047884399999999997 -0.064487299999999997
-0.050292000000000003 -0.011040899999999999 -0.066599800000000001
-0.022292699999999999 -0.0286819 -0.065569699999999995
0.00063439799999999999 -0.030835100000000001 -0.0685553
0.0254291 -0.029738299999999999 -0.060918100000000003
0.0171404 -0.025462499999999999 -0.073706300000000002
0.030289199999999999 -0.018086000000000001 -0.077153799999999995
0.037879500000000003 -0.021946299999999998 -0.063949599999999995
0.046354100000000002 -0.0197045 -0.057201200000000001
0.055989799999999999 -0.0022264199999999998 -0.069551600000000005
0.057511899999999998 0.0079271900000000006 -0.076739799999999997
0.066842899999999997 0.010434000000000001 -0.063542399999999999
0.071864499999999998 0.044321199999999998 -0.068545099999999998
0.0691465 0.0372305 -0.072981199999999996
-0.053690000000000002 0.044321199999999998 -0.093680600000000003
-0.039422600000000002 0.044579599999999997 -0.105833
-0.049602800000000002 0.022926800000000001 -0.093680600000000003
-0.045898000000000001 0.032373399999999997 -0.099755800000000006
-0.0287776 0.0269141 -0.110417
-0.032730799999999997 0.0023106200000000002 -0.095454600000000001
-0.023829400000000001 0.011626900000000001 -0.106002
-0.010326399999999999 0.0072303200000000001 -0.10785
0.0200304 0.0046686599999999998 -0.103172
0.0384129 0.0171404 -0.100494
0.0488911 0.0169447 -0.092190900000000006
0.0393511 0.040068800000000002 -0.105783
0.053689099999999997 0.044321199999999998 -0.093680600000000003
0.048960200000000002 0.039300099999999998 -0.097887299999999997
-0.010798 0.043757400000000002 -0.11874999999999999
0.0011286200000000001 0.029046599999999999 -0.118203
0.0086824399999999996 0.041054199999999999 -0.118948
-4.42995e-07 0.044321199999999998 -0.119544
-0.023300899999999999 0.043229900000000002 0.114993
-0.034241099999999997 0.041382299999999997 0.10927000000000001
-0.029064699999999999 0.039114299999999998 0.112099
-0.037675399999999998 0.032511199999999997 0.105863
-0.024022499999999999 0.034057799999999999 0.114036
-0.014837299999999999 0.023451699999999999 0.11434900000000001
-0.022206400000000001 0.028053999999999999 0.11357399999999999
-0.010017099999999999 0.019376000000000001 0.114036
-0.0042261099999999999 0.0314107 0.118307
-0.00039317399999999999 0.00760219 0.10900799999999999
-0.0035645 0.021797299999999999 0.11569400000000001
0.018969900000000001 0.010149200000000001 0.10747
0.0262066 0.0211872 0.10927000000000001
0.0045629800000000003 0.0273913 0.117378
0.0098559400000000005 0.019307100000000001 0.114036
0.0127749 0.025770499999999998 0.11569400000000001
0.0203757 0.021276900000000001 0.1119
0.027778899999999999 0.032105099999999998 0.1119
0.020041300000000001 0.0288717 0.11434900000000001
0.023392099999999999 0.038064500000000001 0.114897
0.0334121 0.033618099999999998 0.109071
0.039421600000000001 0.044062900000000002 0.105833
0.026774599999999999 0.043138799999999998 0.113512
-0.031697900000000001 0.035718 -0.110401
-0.024663299999999999 0.040488499999999997 -0.11434900000000001
-0.034241099999999997 0.041382299999999997 -0.10927000000000001
-0.0130344 0.0211995 -0.114191
-0.014958900000000001 0.034958900000000001 -0.117771
-0.0011208100000000001 0.00309553 -0.106005
0.0097596100000000002 0.010406 -0.109959
-0.00219337 0.017485899999999999 -0.114036
0.012291699999999999 0.022672999999999999 -0.114897
0.0234182 0.017485799999999999 -0.109205
0.033086699999999997 0.031395699999999999 -0.108985
0.017952900000000001 0.033978000000000001 -0.116408
0.023392099999999999 0.038064500000000001 -0.114897
-0.061069600000000002 0.044321199999999998 0.085495399999999999
-0.060771800000000001 0.038088999999999998 0.085495399999999999
-0.056503699999999997 0.0326182 0.089567800000000003
-0.069146600000000003 0.0372305 0.072981199999999996
-0.060325200000000002 0.0101736 0.074900700000000001
-0.061374400000000003 0.024933799999999999 0.081410300000000005
-0.051374400000000001 0.028093 0.093680600000000003
-0.053741200000000003 0.014172300000000001 0.0860099
-0.041412999999999998 0.0090209999999999995 0.094283800000000001
-0.0484044 -0.0023248600000000002 0.079052999999999998
-0.038740900000000002 -0.0048321900000000001 0.085495399999999999
-0.033825800000000003 -0.016165100000000002 0.076829599999999998
-0.0233703 -0.014430200000000001 0.085495399999999999
-0.0270618 -0.022797899999999999 0.072858699999999998
-0.010289599999999999 -0.020029700000000001 0.083808300000000002
-0.00127406 -0.017546800000000001 0.087863300000000005
0.0108862 -0.0157857 0.088607699999999998
0.021709300000000001 -0.013399100000000001 0.087561399999999998
0.0440375 -0.0152993 0.068554599999999993
0.039723000000000001 -0.0070924899999999999 0.0827788
0.034670199999999998 0.0033342799999999998 0.0951568
0.058485700000000002 0.015311699999999999 0.080688999999999997
0.058436200000000001 0.025862099999999999 0.085495399999999999
0.053229400000000003 0.021362200000000001 0.089567800000000003
0.059889999999999999 0.031916600000000003 0.085495399999999999
0.065706600000000004 0.0121507 0.0675293
0.064139100000000004 0.044321199999999998 0.081410300000000005
0.060771899999999997 0.038088999999999998 0.085495399999999999
-0.0757385 0.036554299999999998 0.059045899999999998
-0.076497599999999999 0.028476399999999999 0.053907799999999999
-0.081291699999999995 0.044321199999999998 0.042895299999999997
-0.083817299999999997 0.044321199999999998 0.031026499999999999
-0.083408099999999999 0.035767399999999998 0.031026499999999999
-0.080894800000000003 0.036025799999999997 0.042895299999999997
-0.078003699999999995 0.044321199999999998 0.053907799999999999
-0.081060199999999999 0.027531799999999999 0.037058000000000001
-0.077973100000000004 0.015823199999999999 0.037703500000000001
-0.072638499999999995 0.029276 0.063912800000000006
-0.074051699999999998 0.017646700000000001 0.053328
-0.059458499999999997 -0.00139868 0.064548300000000003
-0.068371799999999996 0.0106316 0.060648199999999999
-0.074215900000000001 0.0020802300000000002 0.0269013
-0.061530000000000001 -0.0133384 0.037067500000000003
-0.0682841 -0.0072096499999999997 0.0287303
-0.057413199999999998 -0.0082626000000000002 0.058531600000000003
-0.069014800000000001 0.00150695 0.046735899999999997
-0.052692700000000002 -0.019270099999999998 0.045785899999999997
-0.051788800000000003 -0.025205000000000002 0.027957599999999999
-0.0396006 -0.023854299999999998 0.058242500000000003
-0.041282399999999997 -0.028436599999999999 0.043768799999999997
-0.024964500000000001 -0.033371999999999999 0.052673999999999999
-0.0123129 -0.039190799999999998 0.043734200000000001
-0.0040652199999999996 -0.043259600000000002 0.0297364
-0.011292099999999999 -0.035854999999999998 0.054690099999999998
0.00347183 -0.038604399999999997 0.048885900000000003
0.0155538 -0.037103700000000003 0.048518199999999997
0.025849299999999999 -0.029756600000000001 0.060654
0.040391900000000001 -0.0252059 0.054114299999999997
0.028307700000000002 -0.035320999999999998 0.042223799999999999
0.0563981 -0.021235899999999999 0.027886600000000001
0.047519499999999999 -0.022822200000000001 0.047811699999999999
0.062826400000000004 -0.0039168900000000001 0.054161300000000002
0.068719100000000005 -0.00349228 0.037058000000000001
0.060260000000000001 -0.012517800000000001 0.043168999999999999
0.075315900000000005 0.017379700000000001 0.049317899999999998
0.071286500000000003 0.0061569700000000003 0.047407600000000001
0.079706899999999997 0.0146798 0.027400000000000001
0.083816299999999996 0.044321199999999998 0.031026499999999999
0.078195100000000003 0.0281246 0.048518199999999997
0.077622200000000002 0.036361200000000003 0.053907900000000002
-0.086047600000000002 0.044321199999999998 0.012373800000000001
-0.085627999999999996 0.035539899999999999 0.012373800000000001
-0.086052799999999999 0.035496399999999997 0
-0.086367100000000002 0.044321199999999998 -0.0061747499999999997
-0.082613099999999995 0.018148000000000001 -0.0077359799999999999
-0.083924100000000001 0.022870600000000001 0.0085473300000000006
-0.078067300000000006 0.0057412699999999997 -0.0084277499999999995
-0.071776199999999998 -0.0056595200000000003 -0.00778095
-0.078256900000000004 0.0059803399999999998 0.0073345299999999997
-0.069480700000000006 -0.0091652299999999999 0.0087520500000000008
-0.064223699999999995 -0.015946999999999999 -0.0078064700000000002
-0.057576599999999999 -0.0228813 0.0063808800000000002
-0.040676700000000003 -0.034991500000000002 -0.0077904999999999997
-0.051094800000000003 -0.0282981 -0.0070271300000000004
-0.037051099999999997 -0.036969399999999999 0.0084263700000000007
-0.0295821 -0.040213800000000001 -0.0080188900000000007
-0.0170498 -0.043768000000000001 -0.0101399
-0.0083719399999999996 -0.045295000000000002 0.0086090999999999997
-0.0028787700000000001 -0.045505299999999999 -0.011320200000000001
-0.022240099999999999 -0.042719899999999998 0.00656815
0.0038207699999999998 -0.045567799999999999 0.0094616400000000003
0.025551299999999999 -0.041091500000000003 -0.0151275
0.0131561 -0.044618600000000001 -0.0073123600000000004
0.025177000000000001 -0.041830100000000002 0.0028601799999999999
0.036814800000000002 -0.037132199999999997 0.0085772499999999998
0.051748599999999999 -0.0277822 0.0079213800000000004
0.036543800000000001 -0.037185900000000001 -0.0099811899999999992
0.061146699999999998 -0.019134399999999999 -0.0098691400000000002
0.060885500000000002 -0.019356999999999999 0.010253399999999999
0.069492999999999999 -0.0091502600000000003 -0.0084133799999999998
0.069378599999999999 -0.0094376200000000007 0.0073380199999999998
0.078256400000000004 0.0059810000000000002 -0.0073351900000000001
0.0780666 0.0057412599999999998 0.0084250999999999996
0.0834979 0.021739000000000001 -0.011617300000000001
0.083973699999999998 0.0223865 0.00274639
0.086046700000000004 0.044321199999999998 0.012373800000000001
0.085626999999999995 0.035539899999999999 0.012373800000000001
0.0859457 0.035507299999999999 0.0061747499999999997
0.0859457 0.035507299999999999 -0.0061747399999999997
-0.082253599999999996 0.0358862 -0.037058000000000001
-0.074068700000000001 0.044321199999999998 -0.063912800000000006
-0.079735200000000006 0.044321199999999998 -0.048518199999999997
-0.077623200000000003 0.036361200000000003 -0.053907900000000002
-0.073863899999999996 0.0247134 -0.058986700000000003
-0.079450199999999999 0.024896499999999998 -0.042394899999999999
-0.071829500000000004 0.012401199999999999 -0.053758300000000002
-0.068257499999999999 -0.00041642600000000001 -0.0459199
-0.058876400000000002 -0.0093673100000000002 -0.053626899999999998
-0.061028699999999998 -0.013916899999999999 -0.037099699999999999
-0.049131099999999997 -0.023479699999999999 -0.042586100000000002
-0.038799899999999998 -0.024235199999999998 -0.059029600000000002
-0.026483400000000001 -0.0353061 -0.0452947
-0.0113112 -0.034206100000000003 -0.058842699999999998
-0.0115269 -0.0385232 -0.046351200000000002
-0.0122033 -0.042257400000000001 -0.0303942
-0.00094465100000000002 -0.037640199999999999 -0.052422799999999999
0.0122848 -0.035589700000000002 -0.055459899999999999
0.027954199999999998 -0.033441600000000002 -0.049270799999999997
0.036266300000000001 -0.035241799999999997 -0.027586800000000002
0.0244307 -0.039418300000000003 -0.029951499999999999
0.0119945 -0.040754199999999997 -0.038259599999999998
0.037583999999999999 -0.028898900000000002 -0.048518199999999997
0.048816400000000003 -0.025138500000000001 -0.0375722
0.056735599999999997 -0.0082438500000000005 -0.059746
0.059227099999999998 -0.0117258 -0.047844499999999998
0.069536200000000006 0.00068177999999999999 -0.043612600000000001
0.064850400000000002 -0.00079998000000000005 -0.053908499999999998
0.081759499999999999 0.022637399999999998 -0.0286165
0.0719891 0.0093495000000000002 -0.0498375
0.076109200000000002 0.044321199999999998 -0.059045899999999998
0.073706599999999997 0.036762799999999998 -0.063912800000000006
0.073449799999999996 0.0242583 -0.059707099999999999
0.079244599999999998 0.024497100000000001 -0.042407399999999998
0.082655800000000001 0.044321199999999998 -0.037058000000000001
0.079735100000000003 0.044321199999999998 -0.048518199999999997
0.077622200000000002 0.036361200000000003 -0.053908499999999998
-0.061069600000000002 0.044321199999999998 -0.085495399999999999
-0.057335900000000002 0.038441599999999999 -0.089567800000000003
-0.057723200000000002 0.031477900000000003 -0.088039300000000001
-0.063570500000000002 0.017729399999999999 -0.075220999999999996
-0.046187300000000001 -0.00083976299999999999 -0.082786799999999994
-0.039219999999999998 0.013971600000000001 -0.098475599999999996
-0.054193699999999997 0.0164779 -0.086640800000000004
-0.054195100000000003 0.0054210600000000001 -0.079275899999999996
-0.040341200000000001 -0.0092589100000000004 -0.079932600000000006
-0.017176799999999999 -0.0064673899999999999 -0.095921400000000004
-0.0258309 -0.011991099999999999 -0.087172399999999997
-0.0301131 -0.021465399999999999 -0.072289500000000007
-0.0127923 -0.0205135 -0.082746
0.0012988400000000001 -0.0216493 -0.082978200000000002
0.0035240800000000002 -0.0094381199999999995 -0.095901100000000003
0.016644200000000001 -0.017359800000000002 -0.085188600000000003
0.019999200000000002 -0.0068453699999999999 -0.094335600000000006
0.034166599999999998 0.00458786 -0.096386799999999995
0.040771300000000003 -0.0098011000000000001 -0.0790936
0.030203600000000001 -0.0067512900000000001 -0.089804099999999998
0.048223000000000002 0.0013283100000000001 -0.082665699999999995
0.061543899999999999 0.018335899999999999 -0.078488699999999995
0.0486259 0.031034800000000001 -0.097125500000000003
0.059248299999999997 0.028425200000000001 -0.085474099999999997
0.063826599999999997 0.037776299999999999 -0.081410300000000005
0.067932900000000004 0.0278645 -0.072915199999999999
0.057334900000000001 0.038441599999999999 -0.089567800000000003
0.041773999999999999 0.044321199999999998 0
0.041773999999999999 0.044321199999999998 0.020389399999999998
0.085513800000000001 0.044321199999999998 0.018623000000000001
0.072165800000000002 0.044321199999999998 0.0142154
0.041773999999999999 0.044321199999999998 0.061168100000000003
-4.5299500000000001e-07 0.044321199999999998 0
-4.5299500000000001e-07 0.044321199999999998 0.020389399999999998
-4.5299500000000001e-07 0.044321199999999998 0.061168100000000003
-0.041775100000000003 0.044321199999999998 0
-0.041775100000000003 0.044321199999999998 0.020389399999999998
-0.041775100000000003 0.044321199999999998 0.061168100000000003
-0.086367100000000002 0.044321199999999998 0.0061747399999999997
-0.085514800000000002 0.044321199999999998 0.018623000000000001
0.041773999999999999 0.044321199999999998 -0.020389299999999999
0.071639300000000003 0.044321199999999998 -0.0126538
-4.5299500000000001e-07 0.044321199999999998 -0.101947
-4.5299500000000001e-07 0.044321199999999998 -0.061168
0.044370699999999999 0.044256900000000002 -0.102002
0.041773999999999999 0.044321199999999998 -0.061168
-4.5299500000000001e-07 0.044321199999999998 -0.020389299999999999
-0.041775100000000003 0.044321199999999998 -0.061168
-0.041775100000000003 0.044321199999999998 -0.020389299999999999
0.086367100000000002 0.044321199999999998 0.0061747499999999997
0.086367100000000002 0.044321199999999998 -0.0061747399999999997
0.086046700000000004 0.044321199999999998 -0.012373800000000001
-4.5299500000000001e-07 0.044321199999999998 0.101947
-0.055512699999999998 0.044321199999999998 -0.060560000000000003
-0.0093483899999999998 0.044321199999999998 -0.108018
0.063154600000000005 0.044321199999999998 -0.054606000000000002
0.074409400000000001 0.044321199999999998 -0.028646399999999999
0.020830100000000001 0.0436169 0.116045
0.016971799999999999 0.038860400000000003 0.11716
-0.030056300000000001 0.045613000000000001 0.1119
0.0557507 0.044321199999999998 0.083910100000000001
-0.067335900000000004 0.044321199999999998 -0.052043800000000001
-0.058859799999999997 0.044321199999999998 -0.068592
-0.051137200000000001 0.044321199999999998 -0.083668999999999993
-0.044138299999999998 0.039852100000000001 -0.102009
-0.0218351 0.044321199999999998 -0.110346
0.020830100000000001 0.0436169 -0.116045
-0.0669154 0.044321199999999998 -0.077257000000000006
-0.074068700000000001 0.044321199999999998 0.063912800000000006
-0.069485400000000003 0.044321199999999998 0.072981199999999996
-0.016258100000000001 0.039569300000000002 0.117378
0.0069693999999999997 0.044324200000000001 0.11645
0.034710999999999999 0.040218400000000001 0.109071
0.028390100000000001 0.044322399999999998 0.10752399999999999
0.053689099999999997 0.044321199999999998 0.093680600000000003
0.079735100000000003 0.044321199999999998 0.048518199999999997
0.079852300000000001 0.044321199999999998 0.039596199999999998
0.066914600000000005 0.044321199999999998 -0.077257000000000006
0.061068699999999997 0.044321199999999998 -0.085495399999999999
0.084769600000000001 0.044321199999999998 -0.0248606
-0.083524946121455029 0.039931044316581565 0.03085122948267267
