-0.059651693696050931 0.07261801817085177 0.051145551977817116
0.034537941332924316 -0.071890659930664735 0.071890659930664735
-0.034537941332924316 -0.071890659930664735 0.071890659930664735
-0.03567727420875396 -0.06916895660889591 0.074141585615098565
-0.040058074008490124 -0.06637810471598253 0.074605433462711812
-0.045244686703175038 -0.062914201219745516 0.074176963854260314
-0.051143557529714931 -0.058725272552586423 0.073532472625703171
-0.07261801817085177 -0.059651693696050931 0.051145551977817116
0.076271757526865561 -0.004529419167617778 0.076271757526865561
-0.071890659930664735 -0.071890659930664735 0.034537941332924316
-0.078448780401954452 -0.064963206016824843 0.035687752145934226
-0.071890659930664735 -0.071890659930664735 -0.034537941332924316
-0.074141585615098565 -0.06916895660889591 -0.03567727420875396
-0.074605433462711812 -0.06637810471598253 -0.040058074008490124
-0.074176963854260314 -0.062914201219745516 -0.045244686703175038
-0.073532472625703171 -0.058725272552586423 -0.051143557529714931
-0.059651693696050931 -0.051145551977817116 0.07261801817085177
-0.071890659930664735 -0.034537941332924316 0.071890659930664735
-0.071890659930664735 0.034537941332924316 0.071890659930664735
-0.06916895660889591 0.03567727420875396 0.074141585615098565
-0.06637810471598253 0.040058074008490124 0.074605433462711812
-0.062914201219745516 0.045244686703175038 0.074176963854260314
-0.058725272552586423 0.051143557529714931 0.073532472625703171
-0.071890659930664735 0.071890659930664735 0.034537941332924316
-0.071890659930664735 0.071890659930664735 -0.034537941332924316
-0.06916895660889591 0.074141585615098565 -0.03567727420875396
-0.06637810471598253 0.074605433462711812 -0.040058074008490124
-0.062914201219745516 0.074176963854260314 -0.045244686703175038
-0.058725272552586423 0.073532472625703171 -0.051143557529714931
0.051145551977817116 0.07261801817085177 0.059651693696050931
0.045651600000000001 0.081032400000000004 0.055622699999999997
0.034537941332924316 0.071890659930664735 0.071890659930664735
0.033922800000000003 0.081032400000000004 0.063463500000000006
0.0062312981319242611 0.081032400000000004 0.071701539794092439
-0.010338722122539418 0.081032400000000004 0.071295984727280839
-0.076271757526865561 -0.004529419167617778 -0.076271757526865561
-0.019794717829916805 0.081032400000000004 0.069198549189009723
-0.034537941332924316 0.071890659930664735 0.071890659930664735
-0.03567727420875396 0.074141585615098565 0.06916895660889591
-0.033922800000000003 0.081032400000000004 0.063463500000000006
-0.040058074008490124 0.074605433462711812 0.06637810471598253
-0.045244686703175038 0.074176963854260314 0.062914201219745516
-0.045651600000000001 0.081032400000000004 0.055622699999999997
0.081032400000000004 0.055622699999999997 0.045651600000000001
0.071890659930664735 0.071890659930664735 0.034537941332924316
0.081032400000000004 0.063463500000000006 0.033922800000000003
0.081032400000000004 0.071701539794092439 0.0062312981319242611
-0.076271757526865561 -0.076271757526865561 0.004529419167617778
-0.056669222382685167 -0.047928448826101179 0.077991726645741527
0.081032400000000004 0.071295984727280839 -0.010338722122539418
-0.076271757526865561 -0.004529419167617778 0.076271757526865561
0.081032400000000004 0.069198549189009723 -0.019794717829916805
0.071890659930664735 0.071890659930664735 -0.034537941332924316
0.074141585615098565 0.06916895660889591 -0.03567727420875396
0.081032400000000004 0.063463500000000006 -0.033922800000000003
0.074605433462711812 0.06637810471598253 -0.040058074008490124
0.074176963854260314 0.062914201219745516 -0.045244686703175038
0.081032400000000004 0.055622699999999997 -0.045651600000000001
0.073532472625703171 0.058725272552586423 -0.051143557529714931
0.051145551977817116 0.059651693696050931 -0.07261801817085177
0.045651600000000001 0.055622699999999997 -0.081032400000000004
0.034537941332924316 0.071890659930664735 -0.071890659930664735
0.047928448826101179 0.056669222382685167 -0.077991726645741527
0.033922800000000003 0.063463500000000006 -0.081032400000000004
0.035687752145934226 -0.064963206016824843 0.078448780401954452
0.0062312981319242611 0.071701539794092439 -0.081032400000000004
0.047928448826101179 -0.056669222382685167 0.077991726645741527
-0.0091804749100931008 0.071410346679370837 -0.081032400000000004
-0.019794717829916805 0.069198549189009723 -0.081032400000000004
-0.034537941332924316 0.071890659930664735 -0.071890659930664735
-0.03567727420875396 0.06916895660889591 -0.074141585615098565
-0.033922800000000003 0.063463500000000006 -0.081032400000000004
-0.040058074008490124 0.06637810471598253 -0.074605433462711812
-0.045244686703175038 0.062914201219745516 -0.074176963854260314
-0.045651600000000001 0.055622699999999997 -0.081032400000000004
-0.051143557529714931 0.058725272552586423 -0.073532472625703171
0.07261801817085177 0.051145551977817116 -0.059651693696050931
0.081032400000000004 0.045651600000000001 -0.055622699999999997
0.071890659930664735 0.034537941332924316 -0.071890659930664735
0.035687752145934226 0.078448780401954452 0.064963206016824843
0.081032400000000004 0.033922800000000003 -0.063463500000000006
0.081032400000000004 0.0062312981319242611 -0.071701539794092439
-0.078869660800607019 -0.070524961782238715 0.022038443137184213
0.081032400000000004 -0.010338722122539418 -0.071295984727280839
0.081032400000000004 -0.019794717829916805 -0.069198549189009723
0.071890659930664735 -0.034537941332924316 -0.071890659930664735
0.074141585615098565 -0.03567727420875396 -0.06916895660889591
0.081032400000000004 -0.033922800000000003 -0.063463500000000006
0.074605433462711812 -0.040058074008490124 -0.06637810471598253
0.074176963854260314 -0.045244686703175038 -0.062914201219745516
0.081032400000000004 -0.045651600000000001 -0.055622699999999997
0.073532472625703171 -0.051143557529714931 -0.058725272552586423
0.07261801817085177 -0.059651693696050931 -0.051145551977817116
0.071890659930664735 -0.071890659930664735 -0.034537941332924316
0.051145551977817116 -0.07261801817085177 -0.059651693696050931
0.034537941332924316 -0.071890659930664735 -0.071890659930664735
-0.034537941332924316 -0.071890659930664735 -0.071890659930664735
-0.03567727420875396 -0.074141585615098565 -0.06916895660889591
-0.040058074008490124 -0.074605433462711812 -0.06637810471598253
-0.045244686703175038 -0.074176963854260314 -0.062914201219745516
-0.051143557529714931 -0.073532472625703171 -0.058725272552586423
-0.07261801817085177 -0.051145551977817116 -0.059651693696050931
-0.071890659930664735 -0.034537941332924316 -0.071890659930664735
-0.064963206016824843 -0.035687752145934226 0.078448780401954452
-0.077991726645741527 -0.047928448826101179 -0.056669222382685167
-0.071890659930664735 0.034537941332924316 -0.071890659930664735
-0.074141585615098565 0.03567727420875396 -0.06916895660889591
-0.074605433462711812 0.040058074008490124 -0.06637810471598253
-0.074176963854260314 0.045244686703175038 -0.062914201219745516
-0.073532472625703171 0.051143557529714931 -0.058725272552586423
0.07261801817085177 -0.051145551977817116 0.059651693696050931
0.071890659930664735 -0.034537941332924316 0.071890659930664735
0.004529419167617778 -0.076271757526865561 -0.076271757526865561
0.077991726645741527 -0.047928448826101179 0.056669222382685167
0.071890659930664735 0.034537941332924316 0.071890659930664735
0.074141585615098565 0.03567727420875396 0.06916895660889591
0.074605433462711812 0.040058074008490124 0.06637810471598253
0.074176963854260314 0.045244686703175038 0.062914201219745516
0.073532472625703171 0.051143557529714931 0.058725272552586423
0.035687752145934226 -0.078448780401954452 -0.064963206016824843
-0.051145551977817116 -0.059651693696050931 -0.07261801817085177
0.03567727420875396 -0.06916895660889591 -0.074141585615098565
0.051138054745152484 -0.0561692291233295 -0.076055499347585417
0.043215791339829258 -0.061795017051764219 -0.076921059795540675
-0.055622699999999997 -0.081032400000000004 -0.045651600000000001
-0.059651693696050931 -0.07261801817085177 -0.051145551977817116
-0.063463500000000006 -0.081032400000000004 -0.033922800000000003
-0.071701539794092439 -0.081032400000000004 -0.0062312981319242611
-0.078448780401954452 -0.035687752145934226 -0.064963206016824843
-0.071295984727280839 -0.081032400000000004 0.010338722122539418
0.076271757526865561 -0.076271757526865561 -0.004529419167617778
-0.069198549189009723 -0.081032400000000004 0.019794717829916805
-0.063463500000000006 -0.081032400000000004 0.033922800000000003
-0.06916895660889591 -0.074141585615098565 0.03567727420875396
-0.055622699999999997 -0.081032400000000004 0.045651600000000001
-0.0561692291233295 -0.076055499347585417 0.051138054745152484
-0.061795017051764219 -0.076921059795540675 0.043215791339829258
-0.055622699999999997 0.045651600000000001 -0.081032400000000004
-0.059651693696050931 0.051145551977817116 -0.07261801817085177
-0.063463500000000006 0.033922800000000003 -0.081032400000000004
0.077991726645741527 0.047928448826101179 -0.056669222382685167
-0.071701539794092439 0.0062312981319242611 -0.081032400000000004
0.078448780401954452 0.064963206016824843 0.035687752145934226
-0.071295984727280839 -0.010338722122539418 -0.081032400000000004
-0.069198549189009723 -0.019794717829916805 -0.081032400000000004
-0.063463500000000006 -0.033922800000000003 -0.081032400000000004
-0.06916895660889591 -0.03567727420875396 -0.074141585615098565
-0.055622699999999997 -0.045651600000000001 -0.081032400000000004
-0.0561692291233295 -0.051138054745152484 -0.076055499347585417
-0.061795017051764219 -0.043215791339829258 -0.076921059795540675
-0.045651600000000001 -0.081032400000000004 0.055622699999999997
-0.051145551977817116 -0.07261801817085177 0.059651693696050931
-0.033922800000000003 -0.081032400000000004 0.063463500000000006
-0.0062312981319242611 -0.081032400000000004 0.071701539794092439
0.0091804749100931008 -0.081032400000000004 0.071410346679370837
0.019794717829916805 -0.081032400000000004 0.069198549189009723
0.033922800000000003 -0.081032400000000004 0.063463500000000006
0.03567727420875396 -0.074141585615098565 0.06916895660889591
0.045651600000000001 -0.081032400000000004 0.055622699999999997
0.051138054745152484 -0.076055499347585417 0.0561692291233295
0.043215791339829258 -0.076921059795540675 0.061795017051764219
-0.081032400000000004 0.045651600000000001 0.055622699999999997
-0.07261801817085177 0.051145551977817116 0.059651693696050931
-0.081032400000000004 0.033922800000000003 0.063463500000000006
-0.081032400000000004 0.020889899999999999 0.068866200000000002
-0.081032400000000004 0.0062312981319242611 0.071701539794092439
-0.081032400000000004 -0.010338722122539418 0.071295984727280839
-0.081032400000000004 -0.019794717829916805 0.069198549189009723
0.047928448826101179 -0.077991726645741527 -0.056669222382685167
-0.081032400000000004 -0.033922800000000003 0.063463500000000006
-0.074141585615098565 -0.03567727420875396 0.06916895660889591
-0.081032400000000004 -0.045651600000000001 0.055622699999999997
-0.076055499347585417 -0.051138054745152484 0.0561692291233295
-0.076921059795540675 -0.043215791339829258 0.061795017051764219
0.077991726645741527 -0.056669222382685167 -0.047928448826101179
0.06916895660889591 -0.074141585615098565 -0.03567727420875396
0.0561692291233295 -0.076055499347585417 -0.051138054745152484
0.061795017051764219 -0.076921059795540675 -0.043215791339829258
0.059651693696050931 -0.07261801817085177 0.051145551977817116
0.055622699999999997 0.045651600000000001 0.081032400000000004
0.059651693696050931 0.051145551977817116 0.07261801817085177
0.063463500000000006 0.033922800000000003 0.081032400000000004
-0.064963206016824843 0.078448780401954452 0.035687752145934226
0.071701539794092439 0.0062312981319242611 0.081032400000000004
0.071295984727280839 -0.010338722122539418 0.081032400000000004
-0.077991726645741527 -0.056669222382685167 0.047928448826101179
0.069198549189009723 -0.019794717829916805 0.081032400000000004
0.063463500000000006 -0.033922800000000003 0.081032400000000004
0.06916895660889591 -0.03567727420875396 0.074141585615098565
0.055622699999999997 -0.045651600000000001 0.081032400000000004
0.059651693696050931 -0.051145551977817116 -0.07261801817085177
-0.056669222382685167 0.077991726645741527 0.047928448826101179
0.06916895660889591 0.03567727420875396 -0.074141585615098565
0.0561692291233295 0.051138054745152484 -0.076055499347585417
0.061795017051764219 0.043215791339829258 -0.076921059795540675
-0.051145551977817116 0.07261801817085177 -0.059651693696050931
-0.078869660800607019 -0.022038443137184213 -0.070524961782238715
0.03567727420875396 0.074141585615098565 -0.06916895660889591
0.051138054745152484 0.076055499347585417 -0.0561692291233295
0.043215791339829258 0.076921059795540675 -0.061795017051764219
0.055622699999999997 0.081032400000000004 -0.045651600000000001
0.059651693696050931 0.07261801817085177 -0.051145551977817116
0.063463500000000006 0.081032400000000004 -0.033922800000000003
0.078448780401954452 -0.035687752145934226 0.064963206016824843
0.071701539794092439 0.081032400000000004 -0.0062312981319242611
0.071410346679370837 0.081032400000000004 0.0091804749100931008
0.069198549189009723 0.081032400000000004 0.019794717829916805
0.063463500000000006 0.081032400000000004 0.033922800000000003
0.06916895660889591 0.074141585615098565 0.03567727420875396
0.059651693696050931 0.07261801817085177 0.051145551977817116
0.055622699999999997 0.081032400000000004 0.045651600000000001
-0.081032400000000004 0.055622699999999997 -0.045651600000000001
0.078448780401954452 -0.064963206016824843 -0.035687752145934226
-0.07261801817085177 0.059651693696050931 -0.051145551977817116
-0.081032400000000004 0.063463500000000006 -0.033922800000000003
-0.081032400000000004 0.068866200000000002 -0.020889899999999999
-0.081032400000000004 0.071701539794092439 -0.0062312981319242611
-0.081032400000000004 0.071295984727280839 0.010338722122539418
-0.081032400000000004 0.069198549189009723 0.019794717829916805
-0.076271757526865561 0.076271757526865561 0.004529419167617778
-0.081032400000000004 0.063463500000000006 0.033922800000000003
-0.074141585615098565 0.06916895660889591 0.03567727420875396
-0.081032400000000004 0.055622699999999997 0.045651600000000001
-0.076055499347585417 0.0561692291233295 0.051138054745152484
-0.076921059795540675 0.061795017051764219 0.043215791339829258
-0.045651600000000001 0.055622699999999997 0.081032400000000004
-0.051145551977817116 0.059651693696050931 0.07261801817085177
-0.033922800000000003 0.063463500000000006 0.081032400000000004
-0.0062312981319242611 0.071701539794092439 0.081032400000000004
0.0091804749100931008 0.071410346679370837 0.081032400000000004
0.019794717829916805 0.069198549189009723 0.081032400000000004
0.047928448826101179 0.077991726645741527 0.056669222382685167
0.033922800000000003 0.063463500000000006 0.081032400000000004
0.03567727420875396 0.06916895660889591 0.074141585615098565
0.045651600000000001 0.055622699999999997 0.081032400000000004
0.051138054745152484 0.0561692291233295 0.076055499347585417
0.043215791339829258 0.061795017051764219 0.076921059795540675
0.0586683 -0.066177 -0.0586683
-0.0586683 -0.066177 -0.0586683
-0.0586683 0.0586683 -0.066177
0.0586683 0.0586683 0.066177
0.066177 0.0586683 -0.0586683
-0.066177 -0.0586683 0.0586683
0.0586683 0.066177 0.0586683
0.0586683 0.066177 -0.0586683
-0.066177 0.0586683 -0.0586683
-0.066177 -0.0586683 -0.0586683
-0.0586683 -0.0586683 0.066177
0.0586683 -0.0586683 -0.066177
0.072597576594960522 -0.055755030962160924 0.055755030962160924
0.056319295178125291 -0.071569131724273163 0.056319295178125291
0.072597576594960522 -0.055755030962160924 -0.055755030962160924
-0.056319295178125291 -0.056319295178125291 -0.071569131724273163
-0.055755030962160924 0.072597576594960522 -0.055755030962160924
-0.0586683 0.0586683 0.066177
-0.071569131724273163 0.056319295178125291 0.056319295178125291
0.072597576594960522 0.055755030962160924 0.055755030962160924
0.056319295178125291 0.056319295178125291 -0.071569131724273163
-0.056319295178125291 -0.071569131724273163 0.056319295178125291
-0.076271757526865561 0.0045294191676177771 -0.076271757526865561
-0.076271757526865561 -0.076271757526865561 -0.0045294191676177771
0.056669222382685167 -0.047928448826101179 -0.077991726645741527
0.073640584875594189 -0.0053382394750705105 0.079043644117130593
0.076271757526865561 0.076271757526865561 -0.0045294191676177771
-0.079043644117130593 0.073640584875594189 0.0053382394750705105
-0.074898390999532743 0.077797105000380326 0.0040461216261830895
-0.047928448826101179 0.077991726645741527 -0.056669222382685167
-0.0045294191676177771 0.076271757526865561 0.076271757526865561
-0.073640584875594189 -0.079043644117130593 0.0053382394750705105
-0.064963206016824843 -0.078448780401954452 -0.035687752145934226
0.064963206016824843 -0.078448780401954452 0.035687752145934226
0.076271757526865561 -0.076271757526865561 0.004529419167617778
0.073640584875594189 -0.079043644117130593 0.0053382394750705105
-0.078869660800607019 0.070524961782238715 -0.022038443137184213
-0.077797105000380326 -0.074898390999532743 0.0040461216261830895
0.077797105000380326 -0.074898390999532743 0.0040461216261830895
0.0053382394750705105 -0.073640584875594189 -0.079043644117130593
-0.035687752145934226 0.078448780401954452 -0.064963206016824843
0.056669222382685167 0.047928448826101179 0.077991726645741527
0.077797105000380326 -0.0040461216261830895 0.074898390999532743
-0.047928448826101179 -0.056669222382685167 -0.077991726645741527
0.073640584875594189 -0.079043644117130593 -0.0053382394750705105
0.064963206016824843 0.035687752145934226 0.078448780401954452
0.077797105000380326 -0.074898390999532743 -0.0040461216261830895
-0.056669222382685167 -0.077991726645741527 -0.047928448826101179
0.076271757526865561 -0.0045294191676177771 -0.076271757526865561
-0.035687752145934226 -0.078448780401954452 0.064963206016824843
-0.079043644117130593 -0.0053382394750705105 0.073640584875594189
-0.064963206016824843 0.035687752145934226 -0.078448780401954452
-0.073640584875594189 -0.0053382394750705105 -0.079043644117130593
-0.077991726645741527 0.047928448826101179 0.056669222382685167
0.0040461216261830895 -0.077797105000380326 -0.074898390999532743
-0.078869660800607019 0.022038443137184213 0.070524961782238715
-0.047928448826101179 -0.077991726645741527 0.056669222382685167
-0.077991726645741527 0.056669222382685167 -0.047928448826101179
0.056669222382685167 0.077991726645741527 -0.047928448826101179
0.064963206016824843 -0.035687752145934226 -0.078448780401954452
0.056669222382685167 -0.077991726645741527 0.047928448826101179
-0.077797105000380326 -0.0040461216261830895 -0.074898390999532743
-0.035687752145934226 -0.064963206016824843 -0.078448780401954452
0.056669222382685167 0.077991726645741527 0.047928448826101179
-0.078448780401954452 0.035687752145934226 0.064963206016824843
-0.074898390999532743 -0.0040461216261830895 0.077797105000380326
-0.078448780401954452 0.064963206016824843 -0.035687752145934226
-0.056669222382685167 0.047928448826101179 -0.077991726645741527
-0.035687752145934226 0.064963206016824843 0.078448780401954452
0.064963206016824843 0.078448780401954452 -0.035687752145934226
-0.047928448826101179 0.056669222382685167 0.077991726645741527
0.0058201475822783864 -0.071742135600372056 -0.081032400000000004
0.071742135600372056 -0.081032400000000004 -0.0058201475822783864
0.071742135600372056 -0.081032400000000004 0.0058201475822783864
0.051138054745152484 -0.0561692291233295 0.076055499347585417
0.0561692291233295 -0.051138054745152484 0.076055499347585417
-0.0561692291233295 0.076055499347585417 0.051138054745152484
-0.079043644117130593 0.0053382394750705105 -0.073640584875594189
-0.054198197062421898 -0.075435108718032259 0.054198197062421898
0.054198197062421898 0.054198197062421898 -0.075435108718032259
-0.076055499347585417 -0.0561692291233295 0.051138054745152484
-0.075952590173219134 -0.065065965840457818 0.040082792480242553
-0.075435108718032259 0.054198197062421898 0.054198197062421898
-0.0561692291233295 -0.051138054745152484 0.076055499347585417
-0.054198197062421898 -0.054198197062421898 -0.075435108718032259
0.051138054745152484 0.076055499347585417 0.0561692291233295
-0.051143557529714931 0.073532472625703171 0.058725272552586423
0.073532472625703171 0.058725272552586423 0.051143557529714931
0.079043644117130593 0.073640584875594189 -0.0053382394750705105
0.051138054745152484 0.0561692291233295 -0.076055499347585417
0.035687752145934226 0.064963206016824843 -0.078448780401954452
0.040082792480242553 -0.065065965840457818 0.075952590173219134
0.076055499347585417 0.051138054745152484 -0.0561692291233295
0.040082792480242553 0.075952590173219134 0.065065965840457818
0.078448780401954452 0.035687752145934226 -0.064963206016824843
0.076055499347585417 -0.0561692291233295 -0.051138054745152484
0.075435108718032259 -0.054198197062421898 -0.054198197062421898
0.054198197062421898 -0.075435108718032259 0.054198197062421898
0.051138054745152484 -0.076055499347585417 -0.0561692291233295
-0.076055499347585417 -0.051138054745152484 -0.0561692291233295
-0.065065965840457818 -0.040082792480242553 0.075952590173219134
0.076055499347585417 -0.051138054745152484 0.0561692291233295
-0.051138054745152484 -0.0561692291233295 -0.076055499347585417
0.040082792480242553 -0.075952590173219134 -0.065065965840457818
0.040105277458102127 -0.063872388265745511 -0.077178021466565841
-0.0561692291233295 -0.076055499347585417 -0.051138054745152484
-0.075952590173219134 -0.040082792480242553 -0.065065965840457818
-0.071742135600372056 -0.081032400000000004 0.0058201475822783864
-0.063872388265745511 -0.077178021466565841 0.040105277458102127
-0.0561692291233295 0.051138054745152484 -0.076055499347585417
0.075952590173219134 0.065065965840457818 0.040082792480242553
-0.071742135600372056 -0.0058201475822783864 -0.081032400000000004
-0.063872388265745511 -0.040105277458102127 -0.077178021466565841
-0.051138054745152484 -0.076055499347585417 0.0561692291233295
0.040105277458102127 -0.077178021466565841 0.063872388265745511
-0.076055499347585417 0.051138054745152484 0.0561692291233295
-0.081032400000000004 -0.0058201475822783864 0.071742135600372056
-0.077178021466565841 -0.040105277458102127 0.063872388265745511
0.063872388265745511 -0.077178021466565841 -0.040105277458102127
0.0561692291233295 -0.076055499347585417 0.051138054745152484
0.0561692291233295 0.051138054745152484 0.076055499347585417
-0.065065965840457818 0.075952590173219134 0.040082792480242553
0.071742135600372056 -0.0058201475822783864 0.081032400000000004
0.06637810471598253 -0.040058074008490124 0.074605433462711812
0.0561692291233295 -0.051138054745152484 -0.076055499347585417
-0.076055499347585417 0.0561692291233295 -0.051138054745152484
0.063872388265745511 0.040105277458102127 -0.077178021466565841
-0.051138054745152484 0.076055499347585417 -0.0561692291233295
0.040105277458102127 0.077178021466565841 -0.063872388265745511
0.0561692291233295 0.076055499347585417 -0.051138054745152484
0.075952590173219134 -0.040082792480242553 0.065065965840457818
0.06637810471598253 0.074605433462711812 0.040058074008490124
0.0561692291233295 0.076055499347585417 0.051138054745152484
0.075952590173219134 -0.065065965840457818 -0.040082792480242553
-0.081032400000000004 0.071742135600372056 0.0058201475822783864
-0.077178021466565841 0.063872388265745511 0.040105277458102127
-0.051138054745152484 0.0561692291233295 0.076055499347585417
0.040105277458102127 0.063872388265745511 0.077178021466565841
-0.074898390999532743 0.0040461216261830886 -0.077797105000380326
-0.079043644117130593 -0.073640584875594189 -0.0053382394750705105
-0.074898390999532743 -0.077797105000380326 -0.0040461216261830886
0.074898390999532743 0.077797105000380326 -0.0040461216261830886
-0.0053382394750705105 0.079043644117130593 0.073640584875594189
-0.0040461216261830886 0.074898390999532743 0.077797105000380326
-0.065065965840457818 -0.075952590173219134 -0.040082792480242553
0.065065965840457818 -0.075952590173219134 0.040082792480242553
-0.040082792480242553 0.075952590173219134 -0.065065965840457818
0.065065965840457818 0.040082792480242553 0.075952590173219134
0.079043644117130593 -0.0053382394750705105 -0.073640584875594189
0.074898390999532743 -0.0040461216261830886 -0.077797105000380326
-0.040082792480242553 -0.075952590173219134 0.065065965840457818
-0.065065965840457818 0.040082792480242553 -0.075952590173219134
0.065065965840457818 -0.040082792480242553 -0.075952590173219134
-0.040082792480242553 -0.065065965840457818 -0.075952590173219134
-0.075952590173219134 0.040082792480242553 0.065065965840457818
-0.075952590173219134 0.065065965840457818 -0.040082792480242553
-0.040082792480242553 0.065065965840457818 0.075952590173219134
0.065065965840457818 0.075952590173219134 -0.040082792480242553
0.062914201219745516 -0.045244686703175038 0.074176963854260314
-0.081032400000000004 0.0058201475822783864 -0.071742135600372056
-0.073742110603892172 -0.0644146999390834 0.043457904733146493
0.075613932096370448 0.062328131293301475 0.044182239082509095
0.081032400000000004 0.071742135600372056 -0.0058201475822783864
0.040082792480242553 0.065065965840457818 -0.075952590173219134
0.043457904733146493 -0.0644146999390834 0.073742110603892172
0.043457904733146493 0.073742110603892172 0.0644146999390834
0.075952590173219134 0.040082792480242553 -0.065065965840457818
0.076055499347585417 -0.051138054745152484 -0.0561692291233295
-0.0644146999390834 -0.043457904733146493 0.073742110603892172
0.075435108718032259 -0.054198197062421898 0.054198197062421898
0.043457904733146493 -0.073742110603892172 -0.0644146999390834
-0.073742110603892172 -0.043457904733146493 -0.0644146999390834
-0.0644146999390834 0.073742110603892172 0.043457904733146493
-0.054198197062421898 0.075435108718032259 -0.054198197062421898
0.073742110603892172 -0.043457904733146493 0.0644146999390834
0.065885924724429237 0.072934911770321548 0.042608741434222046
0.073742110603892172 -0.0644146999390834 -0.043457904733146493
-0.081032400000000004 -0.071742135600372056 -0.0058201475822783864
-0.0058201475822783864 0.081032400000000004 0.071742135600372056
-0.0644146999390834 -0.073742110603892172 -0.043457904733146493
0.0644146999390834 -0.073742110603892172 0.043457904733146493
-0.043457904733146493 0.073742110603892172 -0.0644146999390834
0.0644146999390834 0.043457904733146493 0.073742110603892172
0.081032400000000004 -0.0058201475822783864 -0.071742135600372056
-0.043457904733146493 -0.073742110603892172 0.0644146999390834
-0.0644146999390834 0.043457904733146493 -0.073742110603892172
0.0644146999390834 -0.043457904733146493 -0.073742110603892172
-0.043457904733146493 -0.0644146999390834 -0.073742110603892172
-0.073742110603892172 0.043457904733146493 0.0644146999390834
-0.073742110603892172 0.0644146999390834 -0.043457904733146493
-0.043457904733146493 0.0644146999390834 0.073742110603892172
0.0644146999390834 0.073742110603892172 -0.043457904733146493
0.058725272552586423 -0.051143557529714931 0.073532472625703171
0.06848534865325806 0.06848534865325806 0.045103476156851466
0.043457904733146493 0.0644146999390834 -0.073742110603892172
0.073742110603892172 0.043457904733146493 -0.0644146999390834
0.076055499347585417 -0.0561692291233295 0.051138054745152484
-0.0561692291233295 0.076055499347585417 -0.051138054745152484
0.071433601839871658 0.064033086054403485 0.047273039424827717
0.071010120704264976 0.061280632350859149 0.051149058842520689
-0.081032400000000004 -0.035364599999999996 -0.035364599999999996
-0.081032400000000004 -0.042476399999999997 -0.032416199999999999
-0.081032400000000004 -0.032416199999999999 -0.028252799999999998
-0.081032400000000004 -0.038924012545359481 -0.026776384472108027
-0.081032400000000004 -0.035149263610698284 -0.025218797897829354
-0.081032400000000004 -0.042695060656155824 -0.028339780272028152
-0.081032400000000004 -0.035932828246307107 -0.028672630284024805
-0.081032400000000004 -0.039704535656620278 -0.030223441792267578
-0.064884286653848794 0.027978585568549232 0.072229935166932616
-0.036496477149132373 -0.036496477149132373 -0.039221778461917219
-0.0059991576567239024 0.05923811914542039 -0.062426714085189128
-0.030457101466435231 0.055564591798585403 -0.067579095297354841
-0.078543949673792718 -0.053648214561664749 0.051132627372576241
-0.079512063322870766 -0.053898211191342575 0.049527824413050592
-0.081032400000000004 -0.05337494999999999 0.048389400000000006
0.032159025226239285 -0.052650741911853295 -0.05982524849665348
0.041261400000000004 -0.041261400000000004 0.0058967999999999989
0.071577424882562565 0.067397748565372423 0.010330358895888533
0.041261399999999997 0.041261399999999997 -0.0058967999999999998
-0.062403245817794391 0.061924245391582353 -0.0025466391308850232
-0.017682299999999998 0.019415700000000004 0.019770981026219346
0.0058968000000000007 -0.041261400000000004 -0.052749008021699482
0.016563893037670668 0.060583154491636579 -0.057220289949066763
-0.074981476097196825 -0.069682058248963771 -0.014530638385880451
0.060135863362687537 -0.069238069150615728 -0.018671137948634724
0.05511094178466789 -0.029467800000000002 0.051038941355026304
0.041550456473912561 0.035824142859798125 0.035559972487871391
0.018066241808867758 0.052401809243700359 0.028200506835553991
-0.035355743406593386 -0.040978941260930254 0.035355743406593393
0.063363069924041684 0.012187901632333572 -0.061737315780645084
-0.045078319312710009 0.03620618340786113 0.039055283190518028
0.049216603119132341 0.041707903119132334 0.055499915552294721
-0.074982608099417147 -0.039811248398092997 -0.058982532113748237
0.037902364626061835 -0.052259803424575271 0.043871342021411359
0.066177739127063415 -0.074450797581727401 -0.023178051855543672
0.077282436312851588 0.051135378764857464 0.054926236276293214
0.076814988297480263 0.053441115481080464 0.053441115481080464
0.077282436312851588 0.054926236276293214 0.051135378764857464
-0.02337634365818736 -0.065846573598742644 0.073231358406670596
-0.054921903814244152 -0.019656258043314299 0.057125625793074439
-0.005896800000000018 0.0058967999999999972 0.048343999300570976
-0.044178960465192804 0.051687660465192804 -0.047139632710464341
-0.062289966610054509 -0.058447880570133739 0.0067226988172361234
-0.058199813805536432 -0.026770923396946023 -0.038926272603840371
-0.067638422088649452 0.029352216717083667 -0.05597600526890887
-0.077282436312851588 0.051135378764857464 -0.054926236276293214
-0.070201146173976339 0.022529125887722337 -0.079058115650100264
-0.068686924104202574 0.021480663483395467 -0.081032400000000004
0.073232067173244472 0.065882258045306813 0.025250142581232794
0.011092356215353899 0.069507374378464618 -0.074861269545066361
0.04126139999999999 0.015127550525346003 0.05408984591323613
0.041261400000000004 -0.017682299999999998 -0.041510089251507627
0.004210165882577898 0.079463906828059219 -0.073360843442623114
0.0045902374550465487 0.081032400000000004 -0.071863573339685419
-0.073691721560447204 -0.072729835720585459 -0.011283041446480478
0.017884645492078414 -0.059495247072733681 0.056618595260266247
-0.023406320801815567 0.065945356548415116 -0.073325207111036891
-0.073600776119829903 0.066032441644407927 -0.025554400106841971
0.047935800000000001 -0.047935799999999994 -0.070824841695972696
-0.058962180901764 0.073668600525452432 -0.038795618757921133
0.058350708542776172 -0.056425405259260944 0.017682300000000001
0.006138822012644353 -0.062366386467150314 -0.059037321325948577
0.071577424882562565 0.010330358895888533 -0.067397748565372423
0.029467800000000002 0.058525165906313653 -0.017682299999999998
0.0581985 -0.081032400000000004 -0.005868449999999999
-0.0058968000000000007 -0.050605648129399328 0.038558233768426972
0.014408933795208015 -0.072118921406126274 0.067664954708674827
0.074853841928479534 0.060129413787968232 -0.036160574668951916
0.017298358191132238 0.0071640931644460226 -0.046965498886227273
-0.061607979205767868 0.0074441642856274068 -0.058377373717540954
-0.05925690316937629 -0.034439039531820842 0.037588527045678055
0.0442699272103345 -0.06277862243584445 0.052957994672672218
0.029467799999999982 -0.053822137637474544 -0.016467300000000004
-0.081032400000000004 -0.017739820269976052 0.057371207337252338
-0.081032400000000004 -0.055591734452816968 0.019742195547303852
-0.077282436312851588 -0.054926236276293214 -0.051135378764857464
0.026607216364328667 -0.063200628996092592 0.065845766036823197
0.0062911481086996126 -0.081032400000000004 -0.062435426924847895
0.075280648603120753 -0.011079560155940537 0.069816330100866339
0.060208283882024004 0.048122699073955486 0.038632641171861257
0.066083771086293999 0.073456707790946346 0.023448324735652167
0.047926965547046743 0.054868109751749328 -0.035884399431072807
-0.016329587150546072 -0.0067631685953145632 -0.045291176575191036
-0.068839217672322567 0.0033806608047618567 0.072304477984756407
0.017112800831096047 0.055113685029643332 0.055897406489084221
0.041261400000000004 0.029467799999999999 -0.052791153079529071
-0.074981476097196825 -0.014530638385880451 0.069682058248963771
0.069321958137840492 0.074647203623948388 0.01442560723866456
-0.061410536884638461 -0.014975160986680718 -0.057731421625088868
-0.0060960040145769312 0.060098772718759741 0.063247758134875209
-0.047383261910199072 0.02946780000000002 0.0052361286179768846
0.064521604282107403 0.0097422507076202376 0.062595666858185253
-0.0086241476594912381 0.038538288123560097 -0.017682299999999998
-0.022529125887722337 -0.079058115650100264 0.070201146173976339
-0.021480663483395467 -0.081032400000000004 0.068686924104202574
0.075621571576876434 0.069716765695370136 -0.012086917670372758
-0.016266508912767701 -0.029467800000000009 -0.056716498261723168
-0.017682299999999995 -0.031101465219875817 0.054036825537878141
0.020691221234824399 0.065086676263431342 -0.069581750146611429
-0.081032400000000004 0.0060925951489111925 -0.060669725207257566
-0.030129033423682484 0.0670897714488492 0.055074490289431524
0.022529125887722337 0.070201146173976339 -0.079058115650100264
0.021480663483395467 0.068686924104202574 -0.081032400000000004
0.0033806608047618559 0.068839217672322567 0.072304477984756407
0.045492307387373851 -0.057081328065158705 -0.039561129144211088
0.077586992807549285 -0.067988878304447956 0.031673437104376978
0.077119412826868516 -0.070547489303504254 0.027599880852149105
-0.054714531116979048 -0.058098242962458885 -0.023042742779522708
0.073287305036088241 -0.04628330087345689 0.050025699126543116
-0.00068632400164486164 0.033718750175013745 0.056213433160064531
0.053328295995390067 0.0058967999999999868 0.029467800000000009
-0.017682299999999988 -0.056601990245302693 -0.059195796094885657
0.053706344914430167 -0.029072586019248912 -0.057949925703747872
0.058333927128563764 -0.037474551935690339 0.062756154421994031
-0.081032400000000004 -0.054846549360727734 -0.02729683061882927
0.072599765073475514 -0.028181633730042489 -0.065275144493778192
0.035985458909698752 -0.033876936253218179 0.062324277431677857
-0.06860029305594896 -0.0061432314526525793 0.070594673523784054
-0.066831699039792899 0.065284850039255285 0.010573565837846853
-0.060388670655645807 -0.054412941509935753 0.02991216286458449
-0.030114951993370862 -0.067898245592764861 -0.056055262057688272
-0.017682299999999998 0.050024597089666667 0.029467799999999995
-0.072596671965185405 0.0088547026876677898 -0.065727500561405444
-0.06584685169378518 -0.069217500138840329 0.011323027659379013
0.057662280117702754 0.05533029310681431 0.050153580117702747
0.079898400000000008 0.072316800000000001 0.010582649999999999
0.081032400000000004 0.071312569897046221 0.01017074906596213
0.019218597130712011 -0.053738468680716231 0.019218597130712011
-0.0485830551091384 -0.0511117448908616 0.073412461237194665
-0.045842514536089465 0.057676704212968125 0.043130611661736706
-0.067988878304447956 0.077586992807549285 -0.031673437104376978
-0.070547489303504254 0.077119412826868516 -0.027599880852149105
-0.0012984689781467256 -0.063711838636363649 0.063459749147727285
-0.041261399999999997 0.054704028275236474 0.01260264403280914
0.041209094151513151 -0.050538524093376357 -0.081032400000000004
-0.060224146170937021 0.069318931522188501 -0.018713191296089584
-0.0094774992918610999 0.066462299565538854 0.071214506758594864
-0.067525255289354033 -0.069619643345288182 0.021065813672158769
0.050674555467511526 0.047011640007742703 -0.054012030037698527
-0.065370588776115901 -0.069851524001641435 -0.020774972113974503
0.0058968000000000145 0.057155738324191532 -0.010713305331537941
-0.0058829957746478895 0.081032400000000004 -0.058166099999999998
0.062830174094900548 -0.056944610177403487 -0.031239637189946601
0.045974125324342918 0.049897474675657076 -0.072807908679979369
-0.017717764553359681 -0.081032400000000004 -0.057032651952569166
-0.081032400000000004 -0.049452973191366018 -0.029528954734007948
0.079058115650100264 -0.070201146173976339 -0.022529125887722337
0.081032400000000004 -0.068686924104202574 -0.021480663483395467
-0.00093946784799901067 -0.04903930649738366 -0.0058968000000000041
-0.060032649370479578 -0.066456869534638419 -0.032383678531286555
0.025183286185261021 -0.073113853750158414 -0.06575728676760656
-0.081032400000000004 -0.048389399999999999 0.053374949999999997
-0.038704561206245339 0.058840313488574977 -0.073551571700404564
0.065882377622968863 -0.024027968918375164 0.060830825663949678
-0.067667575095620824 0.07212135384976695 -0.014409698088910204
0.0060128875363184972 -0.066885242301866668 -0.069681627174107114
0.075280648603120753 -0.069816330100866339 0.011079560155940537
-0.037567217988575749 0.0058967999999999972 0.049952214121566564
0.074853841928479534 0.036160574668951916 0.060129413787968232
-0.048440699294566958 -0.047430900705433043 -0.071335246980665803
-0.073529484175716198 -0.03896741706913797 -0.034003568095338291
0.005896799999999992 0.018897300000000002 -0.060901398110269601
0.006000153710247343 -0.059130000000000002 0.081032400000000004
0.054432154683065725 -0.049986187898632184 0.053001449187818399
-0.0098041763303380099 -0.070547362131204744 0.06643886333782395
0.081032400000000004 0.068866200000000002 0.020889899999999999
0.078869660800607019 0.070524961782238715 0.022038443137184213
-0.017682300000000001 0.081032400000000004 0.057010677882352943
-0.069528969498026422 -0.010734657154458097 -0.065835630081066854
-0.0025263862801377726 0.075390865714285715 -0.0707454
-0.059985454288090101 0.032358931904304729 -0.066411355302286271
-0.011106057032646822 0.074994435341350946 -0.069650455293644331
-0.058124634012187475 -0.0022578465344688207 0.041261399999999997
-0.077604681927130159 -0.061516200609872757 -0.042710343351587521
-0.077818916731355908 -0.063248152357991264 -0.040117037004245064
0.03976442154662338 0.059440394440890616 0.053110366417288904
-0.020633931881728559 0.071517291127801072 0.062776096342686993
0.066703711348804429 -0.064419621708961622 -0.0057429082214592968
-0.081032400000000004 0.058538699999999999 -0.0058812332555425884
0.025201174190329148 0.065572512607806027 -0.074741422455930434
0.067142921878677847 0.05495771760748782 0.04329805381186793
-0.022529125887722337 0.070201146173976339 0.079058115650100264
-0.021480663483395467 0.068686924104202574 0.081032400000000004
-0.070201146173976339 -0.079058115650100264 -0.022529125887722337
-0.068686924104202574 -0.081032400000000004 -0.021480663483395467
0.020889899999999999 -0.081032400000000004 -0.068866200000000002
0.022038443137184213 -0.078869660800607019 -0.070524961782238715
-0.067032621450357044 -0.050794171234455447 -0.040329369307231543
-0.059831806819996614 0.019859145179268619 0.041786702558660176
-0.050539059030006182 -0.029467800000000006 0.0079454828258786366
-0.017682299999999995 0.058317280107826545 -0.0081664816225759818
0.047190599999999999 -0.06950598740548003 -0.047190599999999999
-0.023178051855543672 -0.074450797581727401 -0.066177739127063415
-0.081032400000000004 -0.028200506835553977 -0.018066241808867775
-0.04916857134265102 0.016467300000000004 -0.029467799999999995
0.081032400000000004 0.058320744324324318 -0.0058967999999999989
0.06612194541391378 -0.0056902303744110466 -0.060962025070367382
-0.0058968000000000163 0.05794308327664368 -0.031723686869711346
0.058523964928716907 -0.029467799999999988 -0.0058968000000000093
0.028030762041193452 -0.064984723827191698 -0.072324968876471482
-0.076467458194998811 -0.049109173172217704 0.051460426827782291
-0.068271719917716397 0.073462792418114639 0.010415949787545542
-0.054091171135206409 -0.030770119609940555 -0.064363269742948245
0.067865558109391294 0.042154365055248708 0.049400621200412394
-0.065497785673434367 -0.025044459822705176 0.072868385245705367
-0.017682299999999995 -0.054773125201349866 0.014565638593841617
-0.067730660144871349 0.012772592012091282 -0.072138864081222331
-0.053800112350303755 -4.8714366854621383e-05 -0.00010516662185493068
-0.0058788084705882378 0.058020299999999997 -0.081032400000000004
-0.068261133282778802 0.013708497882780094 0.066892083188748869
0.02322010838042594 -0.059305482326069775 -0.040395772538213415
-0.064528026446211389 0.069312324130107891 -0.027582320131932743
-0.056055262057688279 -0.069014402245451967 0.030114951993370866
-0.028537007025331698 0.072930049259303492 0.065033725534455369
-0.062594011250014209 -0.032387298690794403 0.059960041053085555
-0.077395500000000006 0.027604799999999999 -0.070283700000000005
-0.077830089114785422 0.031390939866610221 -0.067905615960685117
-0.031907095022308048 0.060105764419461999 0.066273557220946036
0.054538931846480947 8.8565934066075006e-06 8.8565934066066332e-06
0.02516809847051199 0.073086999300060698 0.065728897141005452
0.01993938280504045 -0.072902811203733028 -0.069448500169246905
0.0024132445569139387 -0.041183281205616942 0.059588726750111037
-0.048308433593912778 0.065521482115488486 -0.044678391071467101
0.065554780408938626 -0.020829306496898077 -0.070026543011480105
-0.081032400000000004 -0.0059627179169203671 -0.059360257115303017
0.056370797028992288 0.024627115756571484 0.0058968000000000007
-0.075135747104565567 -0.013005244445673199 -0.069827333862316834
-0.073802904290995494 -0.066448169419462938 -0.023558906786577988
-0.0058967999999999998 -0.058008133890214794 -0.081032400000000004
0.081032400000000004 0.059223569966748449 0.005961684481467935
0.058020299999999997 0.0058788084705882378 -0.081032400000000004
0.048149368264174389 -0.070475211157813356 0.04623183173582561
-0.011092356215353897 -0.069507374378464618 -0.074861269545066361
0.017682299999999998 0.0068681251942590508 0.057071119446974829
-0.031673437104376978 -0.077586992807549285 -0.067988878304447956
-0.027599880852149105 -0.077119412826868516 -0.070547489303504254
0.055400271648261952 -0.029467800000000002 0.024714028142545297
0.030170212966469628 0.067928297988546937 -0.05607456489997642
0.064310664448489069 -0.053126800777672692 0.034125367430817934
0.06759617399070296 -0.072013354438358518 -0.014382561876356639
0.015119406844729167 -0.071675014575513049 0.072805877811122313
-0.034994684797593406 -0.054219235293925097 0.066002090714613715
-0.081032400000000004 0.018015661978404249 -0.058273462487131014
-0.081032400000000004 -0.060471354939285814 0.0060729201515044261
-0.072779025371628281 0.065464597244033154 0.028280053228640904
-0.049328653627642015 -0.051165694655005839 0.047894458117416203
0.075547600714285706 0.070915499999999992 0.0025431814580941445
-0.0581985 -0.081032400000000004 -0.0058684499999999973
-0.063813312566191896 -0.061610545555354355 -0.0080810587612360884
0.058451842795165125 -0.0058968000000000059 -0.029467800000000009
-0.077630400000000016 0.075103200000000009 -0.00352755
-0.076300548854305955 0.076300548854305955 -0.003948905658528787
-0.07350886397673724 0.07924153179308778 -0.0048070672922380896
-0.071799316576417055 0.081032400000000004 -0.0052410239760552245
-0.06529148694393315 -0.044127349104848973 0.05543870717011927
-0.0059380349397158434 -0.081032400000000004 -0.058895986689857668
-0.054989206123931579 0.052329047107268337 -0.054989206123931572
0.081032400000000004 0.019714223846303447 0.055373712035673608
0.019010345655841136 -0.017682299999999998 -0.055709410621569401
0.081032400000000004 -0.018446410177241523 -0.059505473048449414
0.014036470479926042 0.067813109317537465 0.066193524106928817
0.057432474898733085 0.063569391804722708 -0.0043108443942249369
0.01969466873710438 -0.081032400000000004 -0.055221291838738827
-0.018509169900235978 0.067340087235921844 0.070572867488077964
-0.074095779695982356 0.017304442964926114 -0.064678957771877738
-0.036961673188412494 0.029467800000000002 -0.056584584893835069
-0.032065249502723367 0.058077701259612972 -0.027404783428759585
0.025067726820103813 0.057819913259447291 0.0058968000000000007
-0.022529125887722337 0.079058115650100264 -0.070201146173976339
-0.021480663483395467 0.081032400000000004 -0.068686924104202574
0.059367615052051861 -0.032768804840771597 -0.034285142422026259
0.061124896924298101 0.025518811287058421 0.063843961038649116
0.071522764703057726 0.014483985362172712 0.06711272907020345
-0.073337439647349248 -0.069905907183345925 0.020074312538140231
0.063822336436028387 -0.068380373616632795 0.020318255735388528
0.0077841640016112195 -0.063176003118157312 0.070447014542247818
-0.070104597736819013 0.068192050921543762 -0.0052236241049836256
-0.01606614453199294 -0.053605550308083554 -0.029467799999999999
-0.075182069623105308 0.069870955359367382 0.012547218726642476
0.064984723827191698 0.028030762041193452 -0.072324968876471482
0.0041538111806165134 -0.074688224922487154 -0.067843380960107641
0.06049125632288084 0.062309183027195389 -0.032047266475029014
0.058997247609351378 -0.081032400000000004 0.0059481372614963194
-0.053657195927681374 0.0010363614506622657 0.06008769689249599
-0.058753232951310942 0.038639495900316699 0.073467948583331111
0.005956782351130634 0.081032400000000004 -0.058914506704324972
0.022596195605878867 -0.073777818537064888 0.065397714647826913
0.075865052978707923 0.011507799734090503 0.069774004096049197
0.022529125887722337 0.079058115650100264 0.070201146173976339
0.021480663483395467 0.081032400000000004 0.068686924104202574
-0.081032400000000004 -0.030207756888891005 -0.02306784498547243
-0.035957315355521935 -0.059749471439377567 0.074487505285832603
0.012897762463601754 0.074807019301448271 0.069473151110372749
-0.073966360961711358 0.039027299596386088 -0.05927225232307471
-0.058844316513444732 0.039313325050683759 0.052522959241319056
-0.0025295853616532724 -0.075420719999999997 0.070777800000000002
-0.037312069902723871 0.036175749057971086 0.06112831075050084
0.068131038102157426 0.073293173133676601 -0.010350015859473174
-0.060135863362687537 -0.081032400000000004 0.018671137948634724
-0.070181461284613819 -0.059074160160138646 0.016019237698267179
-0.022529125887722337 -0.070201146173976339 -0.079058115650100264
-0.021480663483395467 -0.068686924104202574 -0.081032400000000004
0.073385523820682766 -0.019185183413805335 -0.064343022553690371
0.070201146173976339 -0.022529125887722337 -0.079058115650100264
0.068686924104202574 -0.021480663483395467 -0.081032400000000004
0.048044575667225108 -0.046883969167563412 0.065258981725411447
0.0091653014065874276 0.071055867344415893 0.072720675822229686
0.0086635861226250603 0.072882398810352148 -0.065978305430578199
-0.077630400000000016 0.00352755 0.075103200000000009
-0.076300548854305955 0.003948905658528787 0.076300548854305955
-0.07350886397673724 0.0048070672922380896 0.07924153179308778
-0.071799316576417055 0.0052410239760552245 0.081032400000000004
0.074998026117648831 -0.012527693007390563 -0.069673200691130005
-0.048655955109138393 0.051184644890861601 -0.073486474214293898
0.061820515924002492 -0.03328474991431285 -0.065615958944951661
-0.075734189999999993 -0.0006685320509028066 -0.071118000000000001
