0.13394500000000001 0.0044915600000000003 0.055470100000000001
-0.057023200000000003 0.0044915600000000003 -0.030269500000000001
-0.080547300000000002 0.0044915600000000003 0.120522
0.040279500000000003 0.0044915600000000003 0.059325999999999997
-0.037495500000000001 -0.0044915600000000003 0.055953799999999998
0.064500000000000002 0.0044915600000000003 -0.096875699999999995
0.112583 0.0044915600000000003 -0.022776000000000001
-0.021482999999999999 0.0044915600000000003 0.107554
0.112167 0.0044915600000000003 -0.00042111500000000001
0.0136743 -0.0044915600000000003 -0.070160399999999998
0.028284400000000001 -0.0044915600000000003 0.14216500000000001
-0.109778 0.0044915600000000003 -0.022256499999999999
0.028284400000000001 0.0044915600000000003 -0.14216500000000001
-0.028284500000000001 -0.0044915600000000003 0.14216500000000001
-0.120548 -0.0044915600000000003 0.080530099999999993
-0.0798566 0.0044915600000000003 -0.120891
-0.058216200000000003 0.0044915600000000003 -0.089463299999999996
-0.13394500000000001 -0.0044915600000000003 -0.0554703
-0.10224 0.0044915600000000003 0.0419017
0.102517 0.0044915600000000003 -0.102496
0.080547199999999999 0.0044915600000000003 -0.120522
0.144981 -0.0044915600000000003 -7.3947900000000003e-08
-0.061662399999999999 0.0044915600000000003 0.091835100000000003
-0.102758 -0.0044915600000000003 -0.102203
0.076341500000000007 -0.0044915600000000003 6.3821599999999999e-05
0.014561599999999999 0.0044915600000000003 -0.11132599999999999
-0.0086102899999999996 -0.0044915600000000003 0.072484900000000005
-0.077629699999999996 0.0044915600000000003 0.077166299999999993
-0.028284500000000001 0.0044915600000000003 0.14216500000000001
-0.041208399999999999 0.0044915600000000003 -0.099955299999999997
2.1603899999999998e-09 0.0044915600000000003 -0.14495
-0.00058891100000000001 -0.0044915600000000003 0.00013562000000000001
0.081363000000000005 0.0044915600000000003 -0.081725900000000004
0.14219499999999999 0.0044915600000000003 -0.028278399999999999
-1.42586e-07 -0.0044915600000000003 0.14495
0.120547 0.0044915600000000003 -0.080530299999999999
-1.42586e-07 0.0044915600000000003 0.14495
0.055481799999999998 -0.0044915600000000003 0.13391700000000001
0.0052497400000000001 0.0044915600000000003 -0.067169000000000006
0.076263200000000003 0.0044915600000000003 0.075765899999999997
-0.120548 0.0044915600000000003 0.080530099999999993
-0.14219599999999999 0.0044915600000000003 0.028278399999999999
0.074829900000000005 -0.0044915600000000003 -0.014872700000000001
-0.028122999999999999 0.0044915600000000003 -0.142181
-0.13394500000000001 0.0044915600000000003 0.055470100000000001
2.1603899999999998e-09 -0.0044915600000000003 -0.14495
0.102517 -0.0044915600000000003 -0.102496
0.0151745 -0.0044915600000000003 0.077676899999999993
-0.102517 0.0044915600000000003 0.102495
-0.120547 0.0044915600000000003 -0.080530400000000002
-0.080547300000000002 -0.0044915600000000003 0.120522
0.063358499999999998 0.0044915600000000003 -0.026911899999999999
0.049743900000000001 0.0044915600000000003 0.048766299999999999
0.0059477699999999998 0.0044915600000000003 0.074753799999999995
-0.040246900000000002 0.0044915600000000003 0.059304299999999997
-0.055481999999999997 0.0044915600000000003 0.13391700000000001
-0.078196500000000002 0.0044915600000000003 -0.078625600000000004
0.055481799999999998 0.0044915600000000003 -0.13391700000000001
0.102517 0.0044915600000000003 0.102495
0.080547199999999999 -0.0044915600000000003 -0.120522
0.080547199999999999 -0.0044915600000000003 0.120522
0.0144496 0.0044915600000000003 0.108977
-0.089579199999999998 0.0044915600000000003 -0.060323300000000003
-0.050238900000000003 0.0044915600000000003 0.049289399999999997
-0.055605700000000001 -0.0044915600000000003 -0.133851
-0.037275599999999999 -0.0044915600000000003 -0.055475299999999998
0.080547199999999999 0.0044915600000000003 0.120522
0.057501700000000003 -0.0044915600000000003 -0.045352999999999997
-0.014674100000000001 0.0044915600000000003 0.072905899999999996
-0.0580653 -0.0044915600000000003 0.032444399999999998
0.120547 -0.0044915600000000003 0.080530299999999999
0.055481799999999998 0.0044915600000000003 0.13391700000000001
0.039904200000000001 -0.0044915600000000003 -0.060081700000000002
0.074304700000000001 -0.0044915600000000003 0.0211754
-0.012898099999999999 0.0044915600000000003 -0.066568100000000005
-0.102517 -0.0044915600000000003 0.102495
0.027935100000000001 -0.0044915600000000003 -0.068058900000000006
0.120547 0.0044915600000000003 0.080530299999999999
-0.055481999999999997 -0.0044915600000000003 0.13391700000000001
-0.042509499999999999 0.0044915600000000003 0.10218099999999999
0.063517500000000005 -0.0044915600000000003 0.050263700000000001
-0.0573906 -0.0044915600000000003 -0.031838100000000001
-0.028284199999999999 -0.0044915600000000003 -0.14216500000000001
0.069078600000000004 -0.0044915600000000003 -0.028659400000000002
0.14219499999999999 -0.0044915600000000003 0.028278500000000002
0.055481799999999998 -0.0044915600000000003 -0.13391700000000001
-0.144981 0.0044915600000000003 -2.2646500000000001e-07
0.060391800000000002 0.0044915600000000003 0.089890999999999999
0.094440899999999994 0.0044915600000000003 -0.063490199999999997
0.13394500000000001 -0.0044915600000000003 -0.055470100000000001
0.144981 0.0044915600000000003 -7.3947900000000003e-08
0.067616300000000004 0.0044915600000000003 0.0043207999999999996
1.8559900000000002e-05 0.0044915600000000003 -0.00185995
0.041824 0.0044915600000000003 0.100482
-0.0085686200000000007 -0.0044915600000000003 -0.070128099999999999
0.13394500000000001 -0.0044915600000000003 0.055470100000000001
0.120547 -0.0044915600000000003 -0.080530299999999999
0.043520900000000001 0.0044915600000000003 -0.105438
0.099890699999999999 0.0044915600000000003 0.040892400000000002
-0.060114500000000001 0.0044915600000000003 0.029735299999999999
0.106934 0.0044915600000000003 0.020803800000000001
-0.14219499999999999 0.0044915600000000003 -0.028278500000000002
-0.065242900000000006 -0.0044915600000000003 5.0169900000000002e-05
-0.060469599999999998 0.0044915600000000003 -0.0010073199999999999
-0.094048300000000001 0.0044915600000000003 0.062421699999999997
-0.101669 0.0044915600000000003 -0.042554000000000002
-0.10965999999999999 0.0044915600000000003 0.0213834
-0.043763400000000001 0.0044915600000000003 -0.052735499999999998
-0.144926 -0.0044915600000000003 -0.00056567900000000003
0.028284400000000001 -0.0044915600000000003 -0.14216500000000001
-0.14219499999999999 -0.0044915600000000003 -0.028278500000000002
-0.13394500000000001 0.0044915600000000003 -0.0554703
0.0625246 0.0044915600000000003 0.030891499999999999
-0.026812200000000001 0.0044915600000000003 -0.065700700000000001
0.108113 0.0044915600000000003 -0.045129500000000003
-0.0280936 0.0044915600000000003 0.066913600000000004
0.0390058 -0.0044915600000000003 0.070334300000000002
0.13394500000000001 0.0044915600000000003 -0.055470100000000001
-0.13394500000000001 -0.0044915600000000003 0.055470100000000001
-0.14219599999999999 -0.0044915600000000003 0.028278399999999999
-0.120547 -0.0044915600000000003 -0.080530400000000002
0.14219499999999999 -0.0044915600000000003 -0.028278399999999999
-0.102517 0.0044915600000000003 -0.102496
0.028996399999999999 0.0044915600000000003 0.069079100000000004
-0.112997 0.0044915600000000003 -0.00041041599999999998
-0.080547099999999996 -0.0044915600000000003 -0.120522
0.14219499999999999 0.0044915600000000003 0.028278500000000002
0.035734799999999997 0.0044915600000000003 -0.0546682
-0.055481700000000002 0.0044915600000000003 -0.13391700000000001
0.087726999999999999 0.0044915600000000003 0.058095099999999997
-0.021536799999999998 0.0044915600000000003 -0.109845
0.102517 -0.0044915600000000003 0.102495
0.028284400000000001 0.0044915600000000003 0.14216500000000001
-0.091307300000000008 0 -0.11154700000000001
-0.041864350000000002 0 -0.138016
