0 -0.0060000000000000001 0
0 0.0060000000000000001 0
0 -0.0060000000000000001 -0.11999899999999999
0 0.0060000000000000001 -0.11999899999999999
0.0234106 -0.0060000000000000001 -0.11769300000000001
0.0234106 0.0060000000000000001 -0.11769300000000001
0.0459216 -0.0060000000000000001 -0.11086500000000001
0.0459216 0.0060000000000000001 -0.11086500000000001
0.066668199999999997 -0.0060000000000000001 -0.099776299999999998
0.066668199999999997 0.0060000000000000001 -0.099776299999999998
0.084851800000000005 -0.0060000000000000001 -0.0848526
0.084851800000000005 0.0060000000000000001 -0.0848526
0.099775500000000003 -0.0060000000000000001 -0.066668199999999997
0.099775500000000003 0.0060000000000000001 -0.066668199999999997
0.110864 -0.0060000000000000001 -0.045922400000000002
0.110864 0.0060000000000000001 -0.045922400000000002
0.11769300000000001 -0.0060000000000000001 -0.023411399999999999
0.11769300000000001 0.0060000000000000001 -0.023411399999999999
0.11999899999999999 -0.0060000000000000001 0
0.11999899999999999 0.0060000000000000001 0
0.11769300000000001 -0.0060000000000000001 0.0234106
0.11769300000000001 0.0060000000000000001 0.0234106
0.110864 -0.0060000000000000001 0.0459216
0.110864 0.0060000000000000001 0.0459216
0.099775500000000003 -0.0060000000000000001 0.066667400000000002
0.099775500000000003 0.0060000000000000001 0.066667400000000002
0.084851800000000005 -0.0060000000000000001 0.084851800000000005
0.084851800000000005 0.0060000000000000001 0.084851800000000005
0.066668199999999997 -0.0060000000000000001 0.099775500000000003
0.066668199999999997 0.0060000000000000001 0.099775500000000003
0.0459216 -0.0060000000000000001 0.110864
0.0459216 0.0060000000000000001 0.110864
0.0234106 -0.0060000000000000001 0.11769300000000001
0.0234106 0.0060000000000000001 0.11769300000000001
0 -0.0060000000000000001 0.11999899999999999
0 0.0060000000000000001 0.11999899999999999
-0.0234106 -0.0060000000000000001 0.11769300000000001
-0.0234106 0.0060000000000000001 0.11769300000000001
-0.0459216 -0.0060000000000000001 0.110864
-0.0459216 0.0060000000000000001 0.110864
-0.066668199999999997 -0.0060000000000000001 0.099775500000000003
-0.066668199999999997 0.0060000000000000001 0.099775500000000003
-0.0848526 -0.0060000000000000001 0.084851800000000005
-0.0848526 0.0060000000000000001 0.084851800000000005
-0.099775500000000003 -0.0060000000000000001 0.066667400000000002
-0.099775500000000003 0.0060000000000000001 0.066667400000000002
-0.11086500000000001 -0.0060000000000000001 0.0459216
-0.11086500000000001 0.0060000000000000001 0.0459216
-0.11769300000000001 -0.0060000000000000001 0.0234106
-0.11769300000000001 0.0060000000000000001 0.0234106
-0.11999899999999999 -0.0060000000000000001 -8.2758e-07
-0.11999899999999999 0.0060000000000000001 -8.2758e-07
-0.11769300000000001 -0.0060000000000000001 -0.023411399999999999
-0.11769300000000001 0.0060000000000000001 -0.023411399999999999
-0.11086500000000001 -0.0060000000000000001 -0.045922400000000002
-0.11086500000000001 0.0060000000000000001 -0.045922400000000002
-0.099775500000000003 -0.0060000000000000001 -0.066668199999999997
-0.099775500000000003 0.0060000000000000001 -0.066668199999999997
-0.084851800000000005 -0.0060000000000000001 -0.0848526
-0.084851800000000005 0.0060000000000000001 -0.0848526
-0.066668199999999997 -0.0060000000000000001 -0.099776299999999998
-0.066668199999999997 0.0060000000000000001 -0.099776299999999998
-0.0459216 -0.0060000000000000001 -0.11086500000000001
-0.0459216 0.0060000000000000001 -0.11086500000000001
-0.0234106 -0.0060000000000000001 -0.11769300000000001
-0.0234106 0.0060000000000000001 -0.11769300000000001
