-0.042500000000000003 0.02 0.11
-0.085000000000000006 0.01 0.11
-0.042500000000000003 0.01 0.11
-0.085000000000000006 0.01 -0.11
-0.042500000000000003 0.02 -0.11
-0.042500000000000003 0.01 -0.11
0.085000000000000006 0.01 -0.055
0.085000000000000006 0.02 -0.11
0.085000000000000006 0.02 -0.055
-0.085000000000000006 0.02 -0.055
-0.042500000000000003 0.02 -0.055
-0.085000000000000006 -0.01 -0.055
-0.085000000000000006 -0.02 -0.11
-0.085000000000000006 -0.02 -0.055
-0.042500000000000003 -0.02 0.11
-0.085000000000000006 -0.02 0.055
-0.042500000000000003 -0.02 0.055
-0.042500000000000003 -0.02 -0
-0.042500000000000003 -0.02 -0.055
0.042500000000000003 -0.02 -0
0 -0.02 -0.055
0.042500000000000003 -0.02 -0.055
0.042500000000000003 -0.02 0.11
0 -0.02 0.055
0.042500000000000003 -0.02 0.055
-0.085000000000000006 -0.01 -0
-0.085000000000000006 -0.01 0.055
-0.085000000000000006 0.01 0
-0.085000000000000006 -0 0.055
-0.085000000000000006 0.01 0.055
-0.085000000000000006 0 -0.055
-0.085000000000000006 0.01 -0.055
-0.042500000000000003 0.02 0
-0.085000000000000006 0.02 0.055
-0.042500000000000003 0.02 0.055
0.042500000000000003 0.02 0
0 0.02 0.055
0.042500000000000003 0.02 0.055
0.042500000000000003 0.02 -0.11
0 0.02 -0.055
0.042500000000000003 0.02 -0.055
0.085000000000000006 0.01 0
0.085000000000000006 0.02 0.055
0.085000000000000006 0.01 0.055
0.085000000000000006 -0.01 -0
0.085000000000000006 -0 0.055
0.085000000000000006 -0.01 0.055
0.085000000000000006 -0.01 -0.11
0.085000000000000006 0 -0.055
0.085000000000000006 -0.01 -0.055
0 0.01 -0.11
0.042500000000000003 0.01 -0.11
0 -0.01 -0.11
0.042500000000000003 0 -0.11
0.042500000000000003 -0.01 -0.11
-0.085000000000000006 -0.01 -0.11
-0.042500000000000003 0 -0.11
-0.042500000000000003 -0.01 -0.11
-0.042500000000000003 -0 0.11
-0.085000000000000006 -0.01 0.11
-0.042500000000000003 -0.01 0.11
0.042500000000000003 -0 0.11
0 -0.01 0.11
0.042500000000000003 -0.01 0.11
0.042500000000000003 0.02 0.11
0 0.01 0.11
0.042500000000000003 0.01 0.11
0 -0 0.11
0.085000000000000006 0.01 0.11
0.085000000000000006 -0 0.11
0.085000000000000006 0.02 0.11
0 -0.02 0.11
0.085000000000000006 -0.01 0.11
0.085000000000000006 -0.02 0.11
-0.085000000000000006 -0.02 0.11
0 0 -0.11
-0.042500000000000003 -0.02 -0.11
0 -0.02 -0.11
0.085000000000000006 0 -0.11
0.042500000000000003 -0.02 -0.11
0.085000000000000006 -0.02 -0.11
0.085000000000000006 0.01 -0.11
0.085000000000000006 0 0
0.085000000000000006 -0.02 -0.055
0.085000000000000006 -0.02 -0
0.085000000000000006 -0.02 0.055
0 0.02 0
0.085000000000000006 0.02 0
0 0.02 0.11
-0.085000000000000006 0.02 0.11
-0.085000000000000006 0 0
-0.085000000000000006 0.02 0
-0.085000000000000006 0.02 -0.11
-0.085000000000000006 -0 0.11
0 -0.02 -0
-0.085000000000000006 -0.02 -0
-0.085000000000000006 0 -0.11
0 0.02 -0.11
0.085000000000000006 0.02 0.082500000000000004
0.021249999999999998 0.02 -0.082500000000000004
-0.085000000000000006 -0.02 -0.082500000000000004
-0.021250000000000005 -0.02 -0.082500000000000004
-0.085000000000000006 0.02 0.082500000000000004
0.085000000000000006 0.02 -0.082500000000000004
-0.085000000000000006 -0.02 0.0275
-0.085000000000000006 0.02 -0.082500000000000004
-0.085000000000000006 -0.02 0.082500000000000004
0.085000000000000006 -0.02 0.082500000000000004
-0.05485294117647059 -0.02 -0.082500000000000004
-0.085000000000000006 -0.02 -0.0275
-0.0071691176470588258 0.02 -0.082500000000000004
0.063750000000000001 -0.02 0.11
-0.021250000000000002 -0.02 -0.11
0.085000000000000006 0.02 0.0275
-0.063750000000000001 0.02 -0.11
0.05485294117647059 0.02 -0.082500000000000004
0.021249999999999998 -0.02 0.082500000000000004
-0.054852941176470597 -0.02 -0.0275
-0.05485294117647059 0.02 0.082500000000000004
0.055428921568627464 -0.02 0.08160984848484848
0.021250000000000002 0.02 0.082500000000000004
-0.063750000000000001 0.02 0.11
0.021250000000000002 -0.02 -0.082500000000000004
-0.085000000000000006 0.02 0.0275
0.021250000000000002 0.02 0.11
-0.085000000000000006 0.02 -0.0275
-5.1021278705200197e-18 -0.02 -0.076960227272727277
0.063750000000000001 0.02 -0.061979002831078954
0.021250000000000002 -0.02 0.11
0.049669117647058822 0.02 0.082500000000000004
-0.063750000000000001 -0.02 -0.061979002831078954
-0.021250000000000002 0.02 0.08106991192198805
-0.021250000000000002 -0.02 0.082500000000000004
0.063750000000000001 0.02 -0.11
-0.021250000000000002 0.02 -0.11
-0.03553695216379997 0.02 -0.082500000000000004
-0.060268476081899988 0.02 -0.085349504245104527
-0.063750000000000001 -0.02 0.11
0.0070404411764705861 0.02 -0.093480113636363632
0.085000000000000006 -0.02 0.0275
-0.063750000000000001 -0.02 -0.0069790028310789528
-0.054852941176470597 0.02 -0.0275
-5.1021278705200205e-18 -0.02 0.076960227272727277
-0.054852941176470597 0.02 0.0275
-0.063750000000000001 0.02 -0.0069790028310789485
0.0070404411764705861 -0.02 0.093480113636363632
-0.055428921568627457 -0.02 0.08160984848484848
0.085000000000000006 0.02 -0.0275
0.022463235294117648 -0 0.11
0.063750000000000001 0.02 0.064144704506134007
-0.021250000000000002 -0.02 0.11
0.085000000000000006 -0.02 -0.0275
0.054852941176470597 -0.02 -0.0275
-0.063750000000000001 0.02 0.061979002831078954
-0.069034339631234148 0.02 0.012771995474945256
-0.063750000000000001 0.02 -0.062935070583461206
0.063750000000000001 0.02 0.11
0.085000000000000006 -0.0050000000000000001 0.072386363636363638
-0.063750000000000001 -0.02 0.061121077367898832
0.085000000000000006 -0.02 -0.082500000000000004
-0.085000000000000006 0 -0.07602272727272727
-0.038051470588235298 -0.02 -0.091477272727272727
0.054852941176470597 -0.02 0.0275
-0.057487058737502789 0.02 0.0452076973504731
0.05485294117647059 -0.02 -0.082500000000000004
0.021250000000000002 0.02 -0.11
-0.015330882352941179 -0.0050000000000000001 0.11
0.054852941176470597 0.02 0.0275
0.038051470588235298 -0.02 -0.091477272727272727
0.063750000000000001 -0.02 -0.048020997168921047
0.062536764705882347 0 0.11
0.063750000000000001 -0.02 0.061121077367898832
-0.059748591502115908 -0.02 0.035066005048724584
-0.062536764705882347 -0 0.11
0.035459558823529413 0.02 0.093480113636363646
0.063750000000000001 -0.02 -0.11
0.085000000000000006 0 -0.088977272727272724
0.057830882352941183 -0.0050000000000000001 -0.11
0.069034339631234148 -0.02 -0.067771995474945265
0.038051470588235291 0.02 -0.091477272727272727
0.0385743327356897 -0.02 0.091073242886057962
-0.069034339631234148 -0.02 -0.042228004525054742
-0.085000000000000006 0 0.07602272727272727
0.060457841045327206 0.02 -0.036162117979142039
-0.020036764705882355 0 -0.11
-0.037646718607003624 0.02 0.091295459003083099
0.021250000000000002 -0.02 -0.11
0.00016668192586426905 0.02 0.076831427602741253
-0.063750000000000001 -0.02 -0.11
0.0070020951236995305 0.02 0.093450482595585999
-0.038574332735689706 -0.02 0.091073242886057962
-0.0083454907638407273 0.02 0.090047711492541094
0.063750000000000001 -0.02 0.0069790028310789528
0.063750000000000001 0.02 0.0069790028310789485
0.085000000000000006 0 -0.033977272727272731
0.085000000000000006 0 0.021022727272727273
-0.046706927193586413 0.02 -0.09430327080447426
0.067591654304851007 0.02 0.043809557957720749
-0.0079224530999868134 -0.02 0.090096806360516798
-0.071090757474476435 -0.02 0.046658925949338202
0.085000000000000006 -0.0031691890018484292 0.09128213745588977
-0.058790781698667319 -0.02 0.013761940375044669
-0.0070404411764705931 -0.02 -0.093480113636363646
0.05898508182692408 0.02 -0.014353554653673335
-0.062536764705882361 0 -0.11
0.069627211772504138 -0.02 0.041578064477138431
0.020036764705882355 0 -0.11
-0.069926470588235298 0.02 0.034307497862344015
-0.085000000000000006 0 -0.021022727272727276
-0.069926470588235298 0.02 -0.041250000000000002
-0.021250000000000002 0.02 0.11
0.069034339631234148 -0.02 -0.012771995474945258
0.0079224530999868065 -0.02 -0.090096806360516812
0.085000000000000006 -0.0050000000000000001 -0.071988636363636366
-0.085000000000000006 -0.0050000000000000001 0.017386363636363634
-0.085000000000000006 -0.0056044939926062787 0.092833452360947741
0.070912681952500389 0.02 -0.047947270628395329
-0.085000000000000006 0.0050000000000000001 -0.093011363636363642
0.085000000000000006 -0.0050000000000000001 -0.016988636363636365
