1 0.284219 -1
1 0.284219 1
-1 0.284219 1
-1 0.284219 -1
1 -0.284219 -0.99999899999999997
0.99999899999999997 -0.284219 1
-1 -0.284219 1
-1 -0.284219 -1
1 0.284219 0
-1 0.284219 -0
1 -0.284219 9.9999999999999995e-07
-1 -0.284219 -0
1 0.284219 0.5
1 -0.284219 0.50000100000000003
-1 0.284219 0.5
-1 -0.284219 0.5
-1 0.284219 -0.5
-1 -0.284219 -0.5
1 0.284219 -0.5
1 -0.284219 -0.49999900000000003
1 0.284219 0.75
1 -0.284219 0.75000100000000003
-1 0.284219 0.75
-1 -0.284219 0.75
-1 0.284219 0.25
-1 -0.284219 0.25
1 0.284219 0.25
1 -0.284219 0.25000099999999997
1 0.284219 -0.25
1 -0.284219 -0.249999
-1 0.284219 -0.25
-1 -0.284219 -0.25
-1 0.284219 -0.75
-1 -0.284219 -0.75
1 0.284219 -0.75
1 -0.284219 -0.74999899999999997
0 0.284219 -1
0 0.284219 1
0 -0.284219 -1
-9.9999999999999995e-07 -0.284219 1
-0 -0.284219 0
0 0.284219 -0
-0 -0.284219 0.5
0 0.284219 0.5
0 0.284219 -0.5
0 -0.284219 -0.5
-0 -0.284219 0.75
0 0.284219 0.75
0 0.284219 0.25
-0 -0.284219 0.25
0 0.284219 -0.25
0 -0.284219 -0.25
0 -0.284219 -0.75
0 0.284219 -0.75
-0.5 0.284219 -1
-0.5 0.284219 1
-0.5 -0.284219 -1
-0.5 -0.284219 1
-0.5 0.284219 -0
-0.5 0.284219 0.5
-0.5 0.284219 -0.5
-0.5 0.284219 0.75
-0.5 0.284219 0.25
-0.5 0.284219 -0.25
-0.5 0.284219 -0.75
-0.5 -0.284219 0
-0.5 -0.284219 0.5
-0.5 -0.284219 -0.5
-0.5 -0.284219 0.75
-0.5 -0.284219 0.25
-0.5 -0.284219 -0.25
-0.5 -0.284219 -0.75
0.5 -0.284219 0
0.5 -0.284219 0.5
0.5 -0.284219 -0.5
0.5 -0.284219 0.75
0.5 -0.284219 0.25
0.5 -0.284219 -0.25
0.5 -0.284219 -0.75
0.5 0.284219 -1
0.5 0.284219 1
0.5 -0.284219 -1
0.49999900000000003 -0.284219 1
0.5 0.284219 -0
0.5 0.284219 0.5
0.5 0.284219 -0.5
0.5 0.284219 0.75
0.5 0.284219 0.25
0.5 0.284219 -0.25
0.5 0.284219 -0.75
-0.75 0.284219 -1
-0.75 0.284219 1
-0.75 -0.284219 -1
-0.75 -0.284219 1
-0.75 0.284219 -0
-0.75 0.284219 0.5
-0.75 0.284219 -0.5
-0.75 0.284219 0.75
-0.75 0.284219 0.25
-0.75 0.284219 -0.25
-0.75 0.284219 -0.75
-0.75 -0.284219 -0
-0.75 -0.284219 0.5
-0.75 -0.284219 -0.5
-0.75 -0.284219 0.75
-0.75 -0.284219 0.25
-0.75 -0.284219 -0.25
-0.75 -0.284219 -0.75
-0.25 -0.284219 0
-0.25 -0.284219 0.5
-0.25 -0.284219 -0.5
-0.25 -0.284219 0.75
-0.25 -0.284219 0.25
-0.25 -0.284219 -0.25
-0.25 -0.284219 -0.75
-0.25 0.284219 -1
-0.25 0.284219 1
-0.25 -0.284219 -1
-0.25000099999999997 -0.284219 1
-0.25 0.284219 -0
-0.25 0.284219 0.5
-0.25 0.284219 -0.5
-0.25 0.284219 0.75
-0.25 0.284219 0.25
-0.25 0.284219 -0.25
-0.25 0.284219 -0.75
0.25 0.284219 -1
0.25 0.284219 1
0.25 -0.284219 -1
0.249999 -0.284219 1
0.25 0.284219 -0
0.25 0.284219 0.5
0.25 0.284219 -0.5
0.25 0.284219 0.75
0.25 0.284219 0.25
0.25 0.284219 -0.25
0.25 0.284219 -0.75
0.25 -0.284219 0
0.25 -0.284219 0.5
0.25 -0.284219 -0.5
0.25 -0.284219 0.75
0.25 -0.284219 0.25
0.25 -0.284219 -0.25
0.25 -0.284219 -0.75
0.75 -0.284219 0
0.75 -0.284219 0.5
0.75 -0.284219 -0.5
0.75 -0.284219 0.75
0.75 -0.284219 0.25
0.75 -0.284219 -0.25
0.75 -0.284219 -0.75
0.75 0.284219 -1
0.75 0.284219 1
0.75 -0.284219 -1
0.74999899999999997 -0.284219 1
0.75 0.284219 0
0.75 0.284219 0.5
0.75 0.284219 -0.5
0.75 0.284219 0.75
0.75 0.284219 0.25
0.75 0.284219 -0.25
0.75 0.284219 -0.75
1 0 -1
1 0 1
-1 0 1
-1 0 -1
-1 0 -0
1 0 0
-1 0 0.5
1 0 0.5
1 0 -0.5
-1 0 -0.5
-1 0 0.75
1 0 0.75
1 0 0.25
-1 0 0.25
-1 0 -0.25
1 0 -0.25
1 0 -0.75
-1 0 -0.75
0 0 -1
-0 0 1
-0.5 0 -1
-0.5 0 1
0.5 0 1
0.5 0 -1
-0.75 0 -1
-0.75 0 1
-0.25 0 1
-0.25 0 -1
0.25 0 1
0.25 0 -1
0.75 0 -1
0.75 0 1
-1 0.14210900000000001 -0
1 0.14210900000000001 0
-1 0.14210900000000001 0.5
1 0.14210900000000001 0.5
1 0.14210900000000001 -0.5
-1 0.14210900000000001 -0.5
-1 0.14210900000000001 0.75
1 0.14210900000000001 0.75
1 0.14210900000000001 0.25
-1 0.14210900000000001 0.25
-1 0.14210900000000001 -0.25
1 0.14210900000000001 -0.25
1 0.14210900000000001 -0.75
-1 0.14210900000000001 -0.75
-0 0.14210900000000001 1
-0.5 0.14210900000000001 1
0.5 0.14210900000000001 1
-0.75 0.14210900000000001 1
-0.25 0.14210900000000001 1
0.25 0.14210900000000001 1
0.75 0.14210900000000001 1
1 0.14210900000000001 -1
1 0.14210900000000001 1
-1 0.14210900000000001 1
-1 0.14210900000000001 -1
0 0.14210900000000001 -1
-0.5 0.14210900000000001 -1
0.5 0.14210900000000001 -1
-0.75 0.14210900000000001 -1
-0.25 0.14210900000000001 -1
0.25 0.14210900000000001 -1
0.75 0.14210900000000001 -1
1 -0.14210900000000001 -1
1 -0.14210900000000001 1
-1 -0.14210900000000001 1
-1 -0.14210900000000001 -1
0 -0.14210900000000001 -1
-0.5 -0.14210900000000001 -1
0.5 -0.14210900000000001 -1
-0.75 -0.14210900000000001 -1
-0.25 -0.14210900000000001 -1
0.25 -0.14210900000000001 -1
0.75 -0.14210900000000001 -1
-1 -0.14210900000000001 -0
1 -0.14210900000000001 0
-1 -0.14210900000000001 0.5
1 -0.14210900000000001 0.5
1 -0.14210900000000001 -0.5
-1 -0.14210900000000001 -0.5
-1 -0.14210900000000001 0.75
1 -0.14210900000000001 0.75
1 -0.14210900000000001 0.25
-1 -0.14210900000000001 0.25
-1 -0.14210900000000001 -0.25
1 -0.14210900000000001 -0.25
1 -0.14210900000000001 -0.75
-1 -0.14210900000000001 -0.75
-0 -0.14210900000000001 1
-0.5 -0.14210900000000001 1
0.5 -0.14210900000000001 1
-0.75 -0.14210900000000001 1
-0.25 -0.14210900000000001 1
0.25 -0.14210900000000001 1
0.75 -0.14210900000000001 1
