-0.037249999999999998 -0.029000000000000001 -0.0999998
-0.074499999999999997 -0.014500000000000001 -0.0999998
-0.037249999999999998 -0.014500000000000001 -0.0999998
-0.074499999999999997 -0.014500000000000001 0.0999998
-0.037249999999999998 -0.029000000000000001 0.0999998
-0.037249999999999998 -0.014500000000000001 0.0999998
0.074499999999999997 -0.014500000000000001 0.0499999
0.074499999999999997 -0.029000000000000001 0.0999998
0.074499999999999997 -0.029000000000000001 0.0499999
-0.074499999999999997 -0.029000000000000001 0.0499999
-0.037249999999999998 -0.029000000000000001 0.0499999
-0.074499999999999997 0.014500000000000001 0.0499999
-0.074499999999999997 0.029000000000000001 0.0999998
-0.074499999999999997 0.029000000000000001 0.0499999
-0.037249999999999998 0.029000000000000001 -0.0999998
-0.074499999999999997 0.029000000000000001 -0.0499999
-0.037249999999999998 0.029000000000000001 -0.0499999
-0.037249999999999998 0.029000000000000001 0
-0.037249999999999998 0.029000000000000001 0.0499999
0.037249999999999998 0.029000000000000001 0
0 0.029000000000000001 0.0499999
0.037249999999999998 0.029000000000000001 0.0499999
0.037249999999999998 0.029000000000000001 -0.0999998
0 0.029000000000000001 -0.0499999
0.037249999999999998 0.029000000000000001 -0.0499999
-0.074499999999999997 0.014500000000000001 0
-0.074499999999999997 0.014500000000000001 -0.0499999
-0.074499999999999997 -0.014500000000000001 0
-0.074499999999999997 0 -0.0499999
-0.074499999999999997 -0.014500000000000001 -0.0499999
-0.074499999999999997 0 0.0499999
-0.074499999999999997 -0.014500000000000001 0.0499999
-0.037249999999999998 -0.029000000000000001 0
-0.074499999999999997 -0.029000000000000001 -0.0499999
-0.037249999999999998 -0.029000000000000001 -0.0499999
0.037249999999999998 -0.029000000000000001 0
0 -0.029000000000000001 -0.0499999
0.037249999999999998 -0.029000000000000001 -0.0499999
0.037249999999999998 -0.029000000000000001 0.0999998
0 -0.029000000000000001 0.0499999
0.037249999999999998 -0.029000000000000001 0.0499999
0.074499999999999997 -0.014500000000000001 0
0.074499999999999997 -0.029000000000000001 -0.0499999
0.074499999999999997 -0.014500000000000001 -0.0499999
0.074499999999999997 0.014500000000000001 0
0.074499999999999997 0 -0.0499999
0.074499999999999997 0.014500000000000001 -0.0499999
0.074499999999999997 0.014500000000000001 0.0999998
0.074499999999999997 0 0.0499999
0.074499999999999997 0.014500000000000001 0.0499999
0 -0.014500000000000001 0.0999998
0.037249999999999998 -0.014500000000000001 0.0999998
0 0.014500000000000001 0.0999998
0.037249999999999998 0 0.0999998
0.037249999999999998 0.014500000000000001 0.0999998
-0.074499999999999997 0.014500000000000001 0.0999998
-0.037249999999999998 0 0.0999998
-0.037249999999999998 0.014500000000000001 0.0999998
-0.037249999999999998 0 -0.0999998
-0.074499999999999997 0.014500000000000001 -0.0999998
-0.037249999999999998 0.014500000000000001 -0.0999998
0.037249999999999998 0 -0.0999998
0 0.014500000000000001 -0.0999998
0.037249999999999998 0.014500000000000001 -0.0999998
0.037249999999999998 -0.029000000000000001 -0.0999998
0 -0.014500000000000001 -0.0999998
0.037249999999999998 -0.014500000000000001 -0.0999998
0 0 -0.0999998
0.074499999999999997 -0.014500000000000001 -0.0999998
0.074499999999999997 0 -0.0999998
0.074499999999999997 -0.029000000000000001 -0.0999998
0 0.029000000000000001 -0.0999998
0.074499999999999997 0.014500000000000001 -0.0999998
0.074499999999999997 0.029000000000000001 -0.0999998
-0.074499999999999997 0.029000000000000001 -0.0999998
0 0 0.0999998
-0.037249999999999998 0.029000000000000001 0.0999998
0 0.029000000000000001 0.0999998
0.074499999999999997 0 0.0999998
0.037249999999999998 0.029000000000000001 0.0999998
0.074499999999999997 0.029000000000000001 0.0999998
0.074499999999999997 -0.014500000000000001 0.0999998
0.074499999999999997 0 0
0.074499999999999997 0.029000000000000001 0.0499999
0.074499999999999997 0.029000000000000001 0
0.074499999999999997 0.029000000000000001 -0.0499999
0 -0.029000000000000001 0
0.074499999999999997 -0.029000000000000001 0
0 -0.029000000000000001 -0.0999998
-0.074499999999999997 -0.029000000000000001 -0.0999998
-0.074499999999999997 0 0
-0.074499999999999997 -0.029000000000000001 0
-0.074499999999999997 -0.029000000000000001 0.0999998
-0.074499999999999997 0 -0.0999998
0 0.029000000000000001 0
-0.074499999999999997 0.029000000000000001 0
-0.074499999999999997 0 0.0999998
0 -0.029000000000000001 0.0999998
