-0.02 -0.0050000000000000001 -0.047500000000000001
-0.02 -0.01 -0.047500000000000001
-0.040000000000000001 -0.01 -0.047500000000000001
-0.02 -0.0050000000000000001 0.047500000000000001
-0.040000000000000001 -0.0050000000000000001 0.047500000000000001
-0.02 -0.01 0.047500000000000001
0.040000000000000001 -0.0050000000000000001 0.02375
0.040000000000000001 -0.0050000000000000001 0.047500000000000001
0.040000000000000001 -0.01 0.047500000000000001
-0.02 -0.01 0.02375
-0.040000000000000001 -0.01 0.047500000000000001
-0.040000000000000001 -0.01 0.02375
-0.040000000000000001 0.0050000000000000001 0.047500000000000001
-0.02 0.01 -0.02375
-0.02 0.01 -0.047500000000000001
-0.02 0.01 0.02375
-0.02 0.01 0
-0.040000000000000001 0.01 0
0.02 0.01 0.02375
0.02 0.01 0
0 0.01 0
0 0.01 0.02375
0.02 0.01 -0.02375
0 0.01 -0.047500000000000001
0 0.01 -0.02375
-0.040000000000000001 0.0050000000000000001 -0.02375
-0.040000000000000001 0.0050000000000000001 0
-0.040000000000000001 0.01 -0.02375
-0.040000000000000001 -0.0050000000000000001 -0.02375
-0.040000000000000001 -0.0050000000000000001 0
-0.040000000000000001 0 0
-0.040000000000000001 0 -0.02375
-0.040000000000000001 -0.0050000000000000001 0.02375
-0.040000000000000001 0 0.02375
-0.02 -0.01 -0.02375
-0.02 -0.01 0
-0.040000000000000001 -0.01 0
0.02 -0.01 -0.02375
0.02 -0.01 0
-0 -0.01 0
-0 -0.01 -0.02375
0.02 -0.01 0.02375
0.02 -0.01 0.047500000000000001
-0 -0.01 0.02375
0.040000000000000001 -0.0050000000000000001 -0.02375
0.040000000000000001 -0.0050000000000000001 0
0.040000000000000001 -0 0
0.040000000000000001 -0 -0.02375
0.040000000000000001 -0 0.047500000000000001
0.02 -0.0050000000000000001 0.047500000000000001
-0 -0.0050000000000000001 0.047500000000000001
-0 -0.01 0.047500000000000001
0.02 0.0050000000000000001 0.047500000000000001
0 0.0050000000000000001 0.047500000000000001
-0 -0 0.047500000000000001
0.02 -0 0.047500000000000001
-0.02 0.0050000000000000001 0.047500000000000001
-0.040000000000000001 0 0.047500000000000001
-0.02 0 0.047500000000000001
-0.02 0.0050000000000000001 -0.047500000000000001
-0.02 0 -0.047500000000000001
-0.040000000000000001 0.0050000000000000001 -0.047500000000000001
0.02 0.0050000000000000001 -0.047500000000000001
0.02 0 -0.047500000000000001
0 0 -0.047500000000000001
0 0.0050000000000000001 -0.047500000000000001
0.02 -0.0050000000000000001 -0.047500000000000001
0 -0.01 -0.047500000000000001
0 -0.0050000000000000001 -0.047500000000000001
0.040000000000000001 -0.0050000000000000001 -0.047500000000000001
0.02 0.01 -0.047500000000000001
0.040000000000000001 0.01 -0.047500000000000001
0.040000000000000001 0.0050000000000000001 -0.047500000000000001
-0.040000000000000001 0.01 -0.047500000000000001
0.040000000000000001 0.0050000000000000001 0.047500000000000001
0.040000000000000001 0.0050000000000000001 0.02375
0.040000000000000001 -0 0.02375
0.040000000000000001 0.01 0
0.040000000000000001 0.0050000000000000001 0
0.040000000000000001 0.0050000000000000001 -0.02375
0.040000000000000001 -0 -0.047500000000000001
0.040000000000000001 0.01 -0.02375
0.040000000000000001 -0.01 -0.02375
0.040000000000000001 -0.01 -0.047500000000000001
0.040000000000000001 -0.01 0
0.02 -0.01 -0.047500000000000001
-0.040000000000000001 -0.0050000000000000001 -0.047500000000000001
-0.040000000000000001 0 -0.047500000000000001
-0.040000000000000001 -0.01 -0.02375
0.02 0.01 0.047500000000000001
0 0.01 0.047500000000000001
0.040000000000000001 0.01 0.047500000000000001
0.040000000000000001 0.01 0.02375
-0.02 0.01 0.047500000000000001
-0.040000000000000001 0.01 0.047500000000000001
-0.040000000000000001 0.0050000000000000001 0.02375
-0.040000000000000001 0.01 0.02375
0.040000000000000001 -0.01 0.02375
-0.040000000000000001 -0.01 -0.035625000000000004
0.040000000000000001 0.01 0.035625000000000004
0.01 -0.01 -0.035625000000000004
0.029999999999999999 0.01 0.029687499999999999
-0.040000000000000001 0.01 -0.035625000000000004
-0.040000000000000001 0.01 0.035625000000000004
0.040000000000000001 -0.01 0.035625000000000004
0.040000000000000001 -0.01 0.011875
-0.010000000000000002 -0.01 0.035625000000000004
0.040000000000000001 -0.01 -0.035625000000000004
-0.040000000000000001 -0.01 0.035625000000000004
-0.026474609374999999 0.01 0.035625000000000004
-0.026474609374999999 -0.01 0.035625000000000004
0.040000000000000001 0.01 -0.011875
0.040000000000000001 0.01 -0.035625000000000004
-0.040000000000000001 0.01 -0.011875
0.029999999999999999 0.01 0.047500000000000001
0.0099999999999999985 -0.01 0.035625000000000004
-0.040000000000000001 0.01 0.011875
-0.029999999999999999 -0.01 0.047500000000000001
-0.040000000000000001 -0.01 -0.011875
0.029999999999999999 -0.01 0.047500000000000001
-0.0020507812500000018 -0.01 -0.035625000000000004
-0.010000000000000002 0.01 0.035625000000000004
0.029999999999999999 -0.01 0.029687500000000002
0.029999999999999999 -1.3552527156068805e-18 0.047500000000000001
-0.040000000000000001 -0.01 0.011875
-0.026474609374999999 0.01 -0.011875
-0.029999999999999999 0.01 0.026000273855108967
0.026474609374999999 0.01 -0.011875
-0.026474609374999999 -0.01 -0.011875
-0.029999999999999999 0.01 -0.021499726144891033
0.0099999999999999985 0.01 -0.035625000000000004
0.029999999999999999 -0.01 -0.047500000000000001
-0.027526664702420208 0.01 -0.033853117343292286
-0.018237304687500001 -0.01 0.032413651315789473
-0.01 -0.01 0.047500000000000001
0.026474609374999999 -0.01 0.011875
-0.026474609374999999 -0.01 0.011875
0.01 0.01 0.035624999999999997
0.020491536458333331 -0.01 0.034311951754385964
0.029999999999999999 -0.01 -0.029687499999999999
-0.0020507812500000036 0.01 -0.035625000000000004
0.029999999999999999 -0.01 0.002250273855108966
-0.01 0.01 -0.047500000000000001
0.040000000000000001 0.01 0.011875
-0.029999999999999999 -0.01 -0.002250273855108966
0.01 -0.01 -0.047500000000000001
0.020491536458333334 0.01 0.034311951754385964
0.029999999999999999 0.01 -0.002250273855108966
0.029999999999999999 0.01 -0.047500000000000001
-0.018237304687500001 0.01 0.032413651315789473
0.029999999999999999 1.3552527156068805e-18 -0.047500000000000001
0.026474609374999999 0.01 0.011875
0.040000000000000001 -0.01 -0.011875
0.026966145833333337 0.01 -0.034797149122807021
-0.01 0.01 0.047500000000000001
-2.7105054312137607e-18 -0.01 0.033898026315789476
-0.014838213917792631 0.01 -0.035450632575783597
-0.026474609374999999 -0.01 -0.035625000000000004
0.033237304687500004 0.01 0.0060602647631178364
0.026474609374999999 -0.01 -0.011875
-0.021804978887571779 0.01 -0.039596468056051673
-0.029999999999999999 -0.01 0.021499726144891033
-0.016550398152787232 -0.01 0.040256901555547599
0.029999999999999999 0.01 -0.021499726144891037
-0.040000000000000001 -1.3552527156068805e-18 -0.013601973684210527
0.020491536458333331 -0.01 -0.034311951754385964
-0.026474609374999999 0.01 0.011875
0.01 0.01 -0.047500000000000001
-0.014262695312500002 -0.01 -0.034580728631270562
0 0.01 0.033898026315789476
-0.033643395204683013 0.01 -0.028653483954463866
-0.029999999999999999 0.01 -0.047500000000000001
-0.029999999999999999 -0.01 -0.021499726144891037
-0.029999999999999999 0.01 0.047500000000000001
-0.040000000000000001 0 0.037351973684210525
-0.029999999999999999 0.01 0.002250273855108966
0.01 -0.01 0.047500000000000001
0.033499497243275118 0.01 -0.029292952617716545
0.0039746093749999985 -0.01 -0.040699013157894738
-0.033237304687499997 0.01 -0.0060602647631178364
-0.033237304687500004 0.01 0.017689735236882165
0.028563752492737921 0.01 0.02071664053854666
-0.033237304687499997 -0.01 0.029810264763117839
-0.040000000000000001 0 -0.037351973684210525
-0.029999999999999999 -0.01 -0.047500000000000001
-0.033237304687499997 -0.01 0.0060602647631178364
0.028563752492737921 -0.01 0.020716640538546664
-0.020140676261022086 -0.002500000000000004 -0.037768861310234499
0.01 0.01 0.047500000000000001
0.0284527791504951 -0.01 0.038593750000000003
0.0039746093749999951 0.01 -0.040699013157894738
0.018351256951873018 0.01 -0.032509611117366749
0.040000000000000001 1.3552527156068805e-18 0.010148026315789474
-0.0085040244023441344 0.01 -0.039903282981284441
0.028452779150495107 0.01 0.038593749999999996
0.040000000000000001 -1.3552527156068805e-18 -0.010148026315789474
-0.016550398152787228 0.01 0.040256901555547599
-0.040000000000000001 0 0.013601973684210527
-0.01 -0.01 -0.047500000000000001
0.033237304687500004 -0.01 -0.0060602647631178364
0.028563752492737921 -0.01 -0.02071664053854666
0.028452779150495103 -0.01 -0.038593749999999996
-0.033237304687499997 -0.01 -0.029810264763117843
0.016500345659533039 0.01 -0.040299051023551129
-0.0085638117187306802 -0.01 -0.039863260879690159
