0.71268200000000004 -0.078851000000000004 -0.24349499999999999
-0.17338000000000001 0.32458399999999998 -0.21776499999999999
-0.0109248 0.47393000000000002 0.28222999999999998
-0.17338000000000001 0.32458399999999998 0.78222499999999995
0.940133 -0.52607000000000004 -0.0267827
0.251944 -0.00033283199999999997 -0.52678199999999997
0.57686099999999996 -0.52607000000000004 -0.52678700000000001
-0.28731299999999999 -0.078850600000000007 -0.56841900000000001
0.71268200000000004 -0.078851000000000004 0.80795499999999998
0.940133 -0.52607000000000004 0.59124299999999996
0.67726500000000001 -1.0518099999999999 -0.21776699999999999
0.51480499999999996 -1.3767199999999999 0.28222999999999998
0.151531 -1.3767199999999999 0.78222499999999995
0.265463 -0.97328999999999999 1.1328800000000001
-0.436247 -1.3767199999999999 0.59124100000000002
-0.73453199999999996 -0.97328999999999999 0.80795499999999998
-0.436247 -1.3767199999999999 -0.0267814
0.265463 -0.97328999999999999 -0.56841900000000001
0.151531 -1.3767199999999999 -0.21776499999999999
-0.0109248 -1.52607 0.28222999999999998
0.67726500000000001 -1.0518099999999999 0.78222700000000001
0.57686099999999996 -0.52607000000000004 1.0912500000000001
-0.27379399999999998 -1.0518099999999999 1.09124
-0.86157300000000003 -1.0518099999999999 0.28222999999999998
-0.59870999999999996 -0.52607000000000004 -0.52678700000000001
-0.27379399999999998 -1.0518099999999999 -0.52678199999999997
0.251944 -0.00033283199999999997 1.09124
-0.0109248 -0.52607000000000004 1.28223
-0.59870999999999996 -0.52607000000000004 1.0912500000000001
-0.96198300000000003 -0.52607000000000004 0.59124299999999996
-0.96198300000000003 -0.52607000000000004 -0.0267827
-0.73453199999999996 -0.97328999999999999 -0.24349499999999999
-0.0109248 -0.52607000000000004 -0.71777000000000002
0.88350099999999998 -0.97328599999999998 0.28222999999999998
-0.69911400000000001 -0.00033426300000000001 0.78222700000000001
-0.28731299999999999 -0.078850600000000007 1.1328800000000001
-0.53665499999999999 0.32458100000000001 0.28222999999999998
-0.90535100000000002 -0.078854900000000006 0.28222999999999998
-0.69911400000000001 -0.00033426300000000001 -0.21776699999999999
0.839723 -0.00033456099999999998 0.28222999999999998
0.41439799999999999 0.32458399999999998 0.59124100000000002
0.41439799999999999 0.32458399999999998 -0.0267814
